           18
    595.5587976765947        595.5684571238872        595.5774024840839     
    595.5875183049218        595.5980316943475        595.6087903582348     
    595.6204232100964        595.6312843866689        595.6424900996193     
    595.6537349953887        595.6659431176288        595.6437877142024     
    610.7266151436783        610.7274998265298        610.7280230548821     
    610.7283022891679        610.7283885835110        610.7283976493483     
    610.7283037836264        610.7281181828598        610.7274521758355     
    610.7268102648692        610.7262999349510        610.7261967993371     
    610.7262960582748        610.7261968531197        610.7260172774770     
    610.7265552667589        610.7279350450799        610.7293986379568     
    610.7307950371537        610.7337126281111        610.7375619629059     
    610.7408887050008        610.7463803699104        610.7520891803420     
    610.7587478761480        610.7664329171165        610.7746968313729     
    610.7834049662096        610.7937385868372        610.8033124043585     
    610.8134735180628        610.8242280232278        610.8355783410843     
    610.8475897321337        610.8583709245243        610.8700613752032     
    610.8821177068282        610.8944583735953        610.8700901581554     
    625.9518278649831        625.9525664378754        625.9529705953597     
    625.9531985315501        625.9531883339209        625.9530129309745     
    625.9527241496091        625.9523319616945        625.9514325668421     
    625.9507850613566        625.9502974030653        625.9499748331924     
    625.9498467520905        625.9494830582499        625.9493515157375     
    625.9499666067701        625.9511034385549        625.9522840538367     
    625.9539338412376        625.9568720353277        625.9604508605639     
    625.9641930856991        625.9697453503865        625.9752676516860     
    625.9826745108257        625.9901049206685        625.9992029743752     
    626.0082068650102        626.0186465871832        626.0289323674679     
    626.0396463052164        626.0508422891110        626.0625095568073     
    626.0747113873981        626.0862098801970        626.0980201845089     
    626.1105871674472        626.1231423723666        626.0963926024449     
    641.1696504233066        641.1703743422173        641.1707444689853     
    641.1708631772174        641.1707295423652        641.1704206940024     
    641.1699922498299        641.1695512289228        641.1687283721673     
    641.1680041663603        641.1673832500138        641.1669303062149     
    641.1666743390110        641.1665302721260        641.1664739192435     
    641.1669863861830        641.1680299031439        641.1695146228584     
    641.1713738423717        641.1742698680289        641.1780826108384     
    641.1823425659804        641.1879121192463        641.1943348599452     
    641.2017866088999        641.2101298775758        641.2193073842137     
    641.2292435395897        641.2399520343507        641.2507874568770     
    641.2622513250814        641.2740927099262        641.2862872490672     
    641.2989968908694        641.3112527919360        641.3236004338414     
    641.3364907776636        641.3493081272494        641.3203024885541     
    656.3900081082853        656.3905436958059        656.3907189145646     
    656.3906277630867        656.3902724316265        656.3897634981105     
    656.3892786861202        656.3887050947916        656.3876587016263     
    656.3867128815746        656.3858667400441        656.3852686770938     
    656.3851633598342        656.3848442733483        656.3846007783553     
    656.3849275144839        656.3861670771510        656.3876882651941     
    656.3893885957198        656.3922287702152        656.3964426597613     
    656.4005565968947        656.4063431417662        656.4129490474359     
    656.4203119592864        656.4291403697179        656.4383945892529     
    656.4485856872373        656.4597685674950        656.4707179080738     
    656.4821578936284        656.4942723677942        656.5067484328990     
    656.5199975893117        656.5320709807010        656.5445839114717     
    656.5577287512892        656.5704512461508        656.5391246437015     
    671.6103665849300        671.6108283811515        671.6109229241268     
    671.6107382904584        671.6104052976973        671.6099101635457     
    671.6093162439399        671.6086066321456        671.6074461515809     
    671.6063729802253        671.6055864992970        671.6051013707579     
    671.6048719729901        671.6044057546834        671.6040344860013     
    671.6046111058257        671.6059064092723        671.6072625349406     
    671.6088171799382        671.6121726861144        671.6161780855216     
    671.6201469431689        671.6264349455953        671.6327784515084     
    671.6406738802406        671.6491792184739        671.6589214692206     
    671.6687259180785        671.6802485026444        671.6915503948181     
    671.7031652510836        671.7152833667338        671.7278743963246     
    671.7409602682530        671.7530174670500        671.7654048810298     
    671.7788311688819        671.7892887205495        671.7579467988487     
    686.8307258248298        686.8309849859863        686.8309742633529     
    686.8306949236218        686.8301576226876        686.8294527357999     
    686.8286447989927        686.8276994527284        686.8263946776144     
    686.8253528749576        686.8244473011315        686.8237704291812     
    686.8233538519374        686.8226861371478        686.8225767355738     
    686.8231026123632        686.8242464303639        686.8254245594281     
    686.8274952814983        686.8307178276381        686.8345514709262     
    686.8391201119830        686.8452696098568        686.8517416390869     
    686.8599444494328        686.8684849735853        686.8785757391069     
    686.8888519669440        686.9001079398987        686.9118902808032     
    686.9238402588669        686.9361918502408        686.9488976792878     
    686.9618903963768        686.9743454459942        686.9867889242463     
    687.0001807253991        687.0126097049899        686.9767689539959     
    702.0357645835979        702.0360916899410        702.0360779988964     
    702.0357940254793        702.0352512180391        702.0345453061809     
    702.0337447302755        702.0329845832811        702.0318564162441     
    702.0308614800782        702.0300081288337        702.0293979231094     
    702.0291646067643        702.0289403769679        702.0289515663205     
    702.0296068010199        702.0308936745881        702.0327420595122     
    702.0350137289972        702.0384180488165        702.0428434305918     
    702.0477908552265        702.0541358623368        702.0614122009302     
    702.0698026706167        702.0791416284492        702.0893974572978     
    702.1004390160297        702.1122754229707        702.1242945180250     
    702.1368766427561        702.1497783952024        702.1629331226704     
    702.1764929228742        702.1893185300918        702.2021106945417     
    702.2157920734840        702.2281244317412        702.1904353723835     
    717.2402211299778        717.2405885208045        717.2406128401191     
    717.2403654213849        717.2398588941812        717.2393017748307     
    717.2387238205237        717.2380275891944        717.2369734186219     
    717.2360504998634        717.2352659051641        717.2349204100600     
    717.2349876336975        717.2348518109234        717.2349572686206     
    717.2356995477635        717.2375323762031        717.2394838268918     
    717.2418394812540        717.2455585536279        717.2502933570480     
    717.2552832897206        717.2620930016759        717.2694295610456     
    717.2780377339418        717.2875987073136        717.2981807846467     
    717.3092580054641        717.3214957297254        717.3338956968686     
    717.3465111075931        717.3596149625407        717.3731436699879     
    717.3868742189702        717.3997190503857        717.4126907769618     
    717.4266693223462        717.4377452383095        717.3993414598967     
    732.4459965154065        732.4464844812492        732.4466241592093     
    732.4465492747090        732.4462894073944        732.4458978415922     
    732.4454422677589        732.4448604860975        732.4439335924839     
    732.4431576149981        732.4427387677317        732.4426035669796     
    732.4427775876946        732.4427417263322        732.4429921787740     
    732.4442333072212        732.4461457892693        732.4481489552578     
    732.4507066852836        732.4547959461330        732.4594997621933     
    732.4646503364810        732.4717143700699        732.4789241506384     
    732.4879257234520        732.4972843444161        732.5082097356086     
    732.5191943756914        732.5315109750134        732.5441806765467     
    732.5569742599574        732.5701811197379        732.5837290643382     
    732.5973235986590        732.6104172686254        732.6233084053126     
    732.6371147009767        732.6494491449130        732.6082475470846     
    747.6585375756149        747.6587072840458        747.6586024233261     
    747.6582571647077        747.6576887705980        747.6570023511383     
    747.6562655891852        747.6553968467711        747.6543787781986     
    747.6535700972131        747.6529358407166        747.6526020422008     
    747.6525899789103        747.6524934576661        747.6529199494122     
    747.6540236299981        747.6558105001560        747.6578048334000     
    747.6606407698449        747.6646288302658        747.6692343668527     
    747.6747872559592        747.6817433094610        747.6892065747148     
    747.6982317444206        747.7077893600300        747.7187610353927     
    747.7301099410057        747.7423094874050        747.7552369019576     
    747.7682935623347        747.7816857978123        747.7953270359420     
    747.8089001844455        747.8221855927308        747.8350173937714     
    747.8484051742098        747.8604588462806        747.8171536346349     
    762.8399356317084        762.8401851277213        762.8401305707035     
    762.8398459829544        762.8393484126027        762.8387485605230     
    762.8381552289864        762.8375268145418        762.8366988897354     
    762.8360587868408        762.8356114765693        762.8354944100339     
    762.8358732686474        762.8362300146514        762.8369757330920     
    762.8384290351541        762.8406957965515        762.8434237023781     
    762.8467086306404        762.8511711890631        762.8567256470781     
    762.8627848586850        762.8703378731516        762.8786888951271     
    762.8882274355204        762.8987234864064        762.9102173758100     
    762.9224162552134        762.9354598104521        762.9489195082377     
    762.9625895675370        762.9766459493163        762.9908980703829     
    763.0051509454079        763.0187786805575        763.0319883466964     
    763.0455296982258        763.0578304496181        763.0145059029487     
    778.0390295890251        778.0390010837414        778.0386612631260     
    778.0380836671276        778.0372997845602        778.0364776411483     
    778.0356368190289        778.0347044439087        778.0335848844375     
    778.0326512700710        778.0319185660619        778.0317039970059     
    778.0318953776438        778.0319991096503        778.0325164492418     
    778.0338554167199        778.0362052808607        778.0387438786649     
    778.0418575621144        778.0465080709527        778.0519707002861     
    778.0578540805996        778.0656765311170        778.0737853192271     
    778.0834389055661        778.0937194111387        778.1053316561640     
    778.1171562131053        778.1301879448309        778.1436191040996     
    778.1570911194985        778.1709138455425        778.1849809962482     
    778.1988200914001        778.2121805458905        778.2250204665196     
    778.2381551903648        778.2506154996104        778.2073291989631     
    793.2381236716581        793.2379320226048        793.2374199837918     
    793.2367125554920        793.2357883151550        793.2347641149053     
    793.2337118779091        793.2325517125569        793.2312130841357     
    793.2301315451252        793.2293173829880        793.2288828532005     
    793.2288589900016        793.2287423407282        793.2291948219881     
    793.2305599643339        793.2327241869924        793.2350676219907     
    793.2382714429014        793.2429017402342        793.2481377228155     
    793.2541275915246        793.2618346195139        793.2696724668724     
    793.2794225434981        793.2893257199040        793.3009588486296     
    793.3126020922399        793.3252448936838        793.3385526572000     
    793.3518028856515        793.3653327134062        793.3790310063882     
    793.3923804864696        793.4055087739722        793.4179740040995     
    793.4305780101326        793.4432757050710        793.4001524949778     
    808.4410914802260        808.4402906942724        808.4391864440355     
    808.4378527361260        808.4363105492744        808.4346817388044     
    808.4330385745824        808.4313187389945        808.4295410078777     
    808.4279875945602        808.4266692720159        808.4257646089328     
    808.4253028520284        808.4249543306711        808.4251931415839     
    808.4262382915824        808.4281208611208        808.4304395835213     
    808.4336221298240        808.4380629703838        808.4432811080023     
    808.4493985850829        808.4569426263379        808.4650473873411     
    808.4746132192738        808.4847258898033        808.4961347542112     
    808.5079106988610        808.5204621979748        808.5336158925687     
    808.5468316178391        808.5602464777932        808.5737374179073     
    808.5868940011194        808.5996996792485        808.6117892311773     
    808.6238151886535        808.6363597703743        808.5929757945396     
    823.5986164314438        823.5980401497734        823.5971734687142     
    823.5960904562751        823.5948111744123        823.5934637265303     
    823.5922043182483        823.5908819362253        823.5894603823533     
    823.5882893774509        823.5873773850611        823.5869269953918     
    823.5871569365364        823.5873854036325        823.5881896295292     
    823.5898295275090        823.5925265529678        823.5956515319027     
    823.5995057062538        823.6046641124584        823.6108642246849     
    823.6176555719428        823.6260163479865        823.6348973822243     
    823.6451199097615        823.6560287217834        823.6681018090410     
    823.6805178359065        823.6937595307094        823.7075219402709     
    823.7212323056031        823.7351693288863        823.7492075707947     
    823.7627920159622        823.7759631678271        823.7884269874580     
    823.8008085295760        823.8138179254511        823.7723567668802     
    838.7841239753108        838.7833722134802        838.7823219086015     
    838.7810462478268        838.7796145102358        838.7781433016434     
    838.7766899101520        838.7751541659774        838.7735360513292     
    838.7721653171981        838.7711241667341        838.7706582295835     
    838.7707178172603        838.7707761098610        838.7714240532999     
    838.7730946631775        838.7757807485617        838.7787323823574     
    838.7824127683859        838.7877165237459        838.7936646337961     
    838.8002017403663        838.8085555642836        838.8170688165751     
    838.8271589410770        838.8376092188447        838.8494332107010     
    838.8613262098463        838.8741861945547        838.8875693915369     
    838.9008302638611        838.9142744265081        838.9277787228079     
    838.9407513335299        838.9535124172227        838.9655159232934     
    838.9774242679305        838.9903756154612        838.9505876566918     
    853.9696315092128        853.9686898633767        853.9674761993338     
    853.9660594717095        853.9644403929074        853.9627563423024     
    853.9610875102194        853.9593247062146        853.9575010476384     
    853.9560543372033        853.9548943808639        853.9542414392340     
    853.9541231029123        853.9540043938780        853.9547137465034     
    853.9563350425688        853.9588647146398        853.9616440289155     
    853.9654779115849        853.9706082640695        853.9763115137348     
    853.9829150567367        853.9909605604216        853.9992311382929     
    854.0090883878981        854.0191840626088        854.0306837108146     
    854.0422706238602        854.0545618447590        854.0675681376265     
    854.0804067350729        854.0933714906911        854.1063540797721     
    854.1187475087866        854.1310827677351        854.1426464299456     
    854.1541233687622        854.1669492538133        854.1288185465976     
    869.1222442985851        869.1215441061620        869.1205708192042     
    869.1193969354546        869.1180459958690        869.1166624911896     
    869.1153258695448        869.1140135502196        869.1127086898113     
    869.1117136638067        869.1110408025522        869.1109246913537     
    869.1114175286746        869.1121523146719        869.1135734553476     
    869.1158960531216        869.1191574362945        869.1229850324549     
    869.1276329668256        869.1335343103364        869.1402175717615     
    869.1476674541231        869.1564452538486        869.1656840534424     
    869.1762172860168        869.1871829289533        869.1992963430193     
    869.2116582642763        869.2246650357167        869.2381797991976     
    869.2516351081885        869.2651544453903        869.2786344706313     
    869.2915425425875        869.3042528342824        869.3162407373294     
    869.3281457182524        869.3414353620010        869.3051962830365     
    884.2883899941015        884.2872789452869        884.2859271199759     
    884.2844055898719        884.2827379107896        884.2811454760505     
    884.2797691818440        884.2782939743372        884.2768161130539     
    884.2756747744803        884.2748772643097        884.2747929632595     
    884.2754519166436        884.2761365116253        884.2775248631956     
    884.2798201667200        884.2833658618187        884.2872006128099     
    884.2918271441762        884.2978392348164        884.3046390605202     
    884.3120401413162        884.3210102096136        884.3301773868372     
    884.3407550697594        884.3516901398667        884.3638611261001     
    884.3760286169606        884.3889754178227        884.4023445411906     
    884.4155638316284        884.4287681976882        884.4418627622542     
    884.4543300591446        884.4666625290289        884.4782419554924     
    884.4897212266751        884.5025093948348        884.4664573800148     
    899.4545355992914        899.4534817548624        899.4521882448148     
    899.4507529594831        899.4493172209146        899.4479059071550     
    899.4465945618009        899.4451694469947        899.4437638893015     
    899.4426821860895        899.4421577477814        899.4422629153501     
    899.4429132208239        899.4436133786627        899.4449927763810     
    899.4475613690028        899.4510705584403        899.4547828334076     
    899.4593574098702        899.4654370503655        899.4719989387788     
    899.4792705390730        899.4881435208442        899.4969693037750     
    899.5074695987511        899.5179823472445        899.5299713218116     
    899.5417411679960        899.5542449647272        899.5671931155453     
    899.5799662124004        899.5926112007553        899.6050423774313     
    899.6168913296981        899.6287231206322        899.6398267208369     
    899.6508629332642        899.6632923117328        899.6277184745110     
    914.6206810855247        914.6195732240438        914.6183690891855     
    914.6170194587797        914.6155504491622        914.6141151487315     
    914.6127860848447        914.6113338048616        914.6100442604561     
    914.6092037607010        914.6087076054625        914.6088112349992     
    914.6094285514041        914.6101886290110        914.6118545457048     
    914.6143792664653        914.6178204924278        914.6214928436568     
    914.6262366561219        914.6321717064999        914.6385551442588     
    914.6459340034426        914.6545778461058        914.6633518933829     
    914.6736232553802        914.6839900476670        914.6956756114733     
    914.7072459224821        914.7193466344447        914.7318722580014     
    914.7442735041831        914.7564283358040        914.7682587222206     
    914.7796037761158        914.7909162130819        914.8015671661462     
    914.8122205369979        914.8241826084464        914.7889795690071     
    929.7600566770228        929.7592656080200        929.7582870087166     
    929.7571886778157        929.7559967090489        929.7548701896235     
    929.7539201091010        929.7530163474698        929.7522313581400     
    929.7518068930282        929.7517446120771        929.7523093909813     
    929.7535250471817        929.7550049789811        929.7571738292860     
    929.7602043440769        929.7642307412440        929.7686683356060     
    929.7739203412220        929.7803599323832        929.7875349000957     
    929.7953948863911        929.8045988574506        929.8140074220686     
    929.8247076563451        929.8357234360436        929.8478473796980     
    929.8598894187684        929.8724528496213        929.8852930304245     
    929.8979777051183        929.9103579904213        929.9223497443954     
    929.9338465169454        929.9452559857604        929.9561387517170     
    929.9669165243274        929.9788365073209        929.9444442606783     
    944.9051666569046        944.9041640587938        944.9029862839221     
    944.9016992287787        944.9003284565005        944.8992045053858     
    944.8982508015450        944.8971855231739        944.8962691238662     
    944.8957157184660        944.8955268497291        944.8961924921915     
    944.8973920479934        944.8987765956273        944.9008516548564     
    944.9038597333437        944.9080530012894        944.9123821303186     
    944.9175435835205        944.9241606558279        944.9312720292980     
    944.9390225810955        944.9484055686421        944.9576791626966     
    944.9685307598617        944.9793404573226        944.9915101804913     
    945.0033061317381        945.0158112649102        945.0285222944975     
    945.0410393104880        945.0531863539622        945.0648107073954     
    945.0759744192976        945.0870993572233        945.0976872199151     
    945.1082931606228        945.1198327351934        945.0857745398830     
    960.0502762363776        960.0493632346870        960.0482682534935     
    960.0471766016794        960.0460428627631        960.0449880042892     
    960.0440739600258        960.0430220155674        960.0421296009407     
    960.0416570268677        960.0416696271727        960.0423219636128     
    960.0434401494059        960.0447660290353        960.0468641479926     
    960.0499858494735        960.0540144083922        960.0582082493503     
    960.0634094189675        960.0699611505790        960.0768284079749     
    960.0846001388419        960.0937498900522        960.1028035113642     
    960.1135882748994        960.1240666138376        960.1360315336572     
    960.1476741335318        960.1596757710188        960.1720830553096     
    960.1842402545869        960.1959822567773        960.2071677625039     
    960.2179485710780        960.2286508142641        960.2388934900757     
    960.2494504140433        960.2606379948811        960.2271048131738     
    975.1953853521812        975.1945044553757        975.1934971152612     
    975.1923818647286        975.1911850741757        975.1900681220720     
    975.1890910010352        975.1879644494929        975.1872090010340     
    975.1867970581333        975.1867314645838        975.1873056298115     
    975.1883159695741        975.1897353799544        975.1919132007459     
    975.1949309876272        975.1988191765857        975.2030962855927     
    975.2083310133457        975.2147412195777        975.2215742139304     
    975.2293792037826        975.2382936432628        975.2474864217846     
    975.2580241021932        975.2685198673555        975.2801246090864     
    975.2917277966375        975.3035379630398        975.3155328624441     
    975.3273796603850        975.3387925752378        975.3496442607624     
    975.3601794015257        975.3703788241494        975.3802947455985     
    975.3907928282179        975.4015689852403        975.3684350864647     
    990.3147260745088        990.3140771748425        990.3132755811599     
    990.3123789410855        990.3114141047432        990.3105453714174     
    990.3099680770425        990.3092864781288        990.3088186023203     
    990.3086981476647        990.3089270521942        990.3098134286586     
    990.3113645173698        990.3131951950530        990.3157014353884     
    990.3190441789978        990.3234165487135        990.3281766879945     
    990.3337312112943        990.3405199794702        990.3478924801573     
    990.3559851886356        990.3653399600544        990.3749025303251     
    990.3857843806710        990.3966365852040        990.4085929233936     
    990.4204184748030        990.4325887063418        990.4449035823515     
    990.4569766509729        990.4686448512888        990.4797725856737     
    990.4905063812338        990.5010389871760        990.5112085849593     
    990.5220209919153        990.5331307308164        990.5015566403670     
    1005.439695659095        1005.438971675048        1005.438099068442     
    1005.437132012446        1005.436187951093        1005.435444611729     
    1005.434821089356        1005.434069268305        1005.433529215955     
    1005.433322755166        1005.433540461069        1005.434568538734     
    1005.435978964847        1005.437692767684        1005.440065572992     
    1005.443444173459        1005.447746782504        1005.452333213132     
    1005.457680864741        1005.464547684609        1005.471643324304     
    1005.479507962486        1005.488770371270        1005.498013170417     
    1005.508808855899        1005.519275225658        1005.531089504721     
    1005.542645676134        1005.554527786989        1005.566697368058     
    1005.578636252369        1005.590178684093        1005.601180218232     
    1005.611779584945        1005.622427406487        1005.632613675944     
    1005.643799667226        1005.655320318024        1005.625476468744     
    1020.564664175338        1020.564053766737        1020.563346444527     
    1020.562646121346        1020.561876649883        1020.561200170124     
    1020.560602572421        1020.559891711807        1020.559375864391     
    1020.559363235336        1020.559683976306        1020.560645216177     
    1020.561943693554        1020.563560653670        1020.566027243959     
    1020.569335285985        1020.573402892982        1020.577779710717     
    1020.583180828281        1020.589746113875        1020.596492448341     
    1020.604301734283        1020.613120794396        1020.622136145580     
    1020.632532083586        1020.642730117571        1020.654090403244     
    1020.665461469188        1020.676894793480        1020.688688749891     
    1020.700401801136        1020.711737139302        1020.722543079116     
    1020.733357692157        1020.743665372402        1020.753841716831     
    1020.765304086766        1020.776388116629        1020.749396295524     
    1035.700100713395        1035.699312722838        1035.698382741765     
    1035.697356177205        1035.696254996967        1035.695242928499     
    1035.694255670704        1035.693341762211        1035.692681275976     
    1035.692318569444        1035.692253611243        1035.692821695629     
    1035.693720409451        1035.695188256192        1035.697272773876     
    1035.700129365943        1035.703682290397        1035.707899805156     
    1035.712822663638        1035.718859064966        1035.725282965920     
    1035.732571569363        1035.740768980501        1035.749452303058     
    1035.759135413405        1035.768995781494        1035.779677224973     
    1035.790619878177        1035.801640966214        1035.812902944605     
    1035.824067516599        1035.835014554497        1035.845643209216     
    1035.856134841919        1035.866152460541        1035.876075335936     
    1035.886847545311        1035.897480954195        1035.873316122304     
    1050.793972814258        1050.793671647131        1050.793235440826     
    1050.792705675971        1050.792103839377        1050.791696972990     
    1050.791430252266        1050.791073143905        1050.790912598682     
    1050.791034993086        1050.791439085331        1050.792626133788     
    1050.794156050373        1050.796060583212        1050.798556700900     
    1050.801802464742        1050.806006089583        1050.810583308586     
    1050.815823953325        1050.822302548939        1050.829110994822     
    1050.836635520280        1050.845294038105        1050.854170107413     
    1050.864223018284        1050.874280084814        1050.885362251738     
    1050.896433287797        1050.907876447285        1050.919590728355     
    1050.931237292499        1050.942677159413        1050.953794864480     
    1050.964755157849        1050.975551467782        1050.986113839165     
    1050.997429763628        1051.008644934552        1050.988217528084     
    1065.901617478136        1065.901466989093        1065.901179871692     
    1065.900832658015        1065.900603766130        1065.900470456317     
    1065.900275200290        1065.900019584415        1065.899942601711     
    1065.900118464445        1065.900809964441        1065.902113748900     
    1065.903557305465        1065.905396886655        1065.907816788943     
    1065.911203607281        1065.915168534995        1065.919533464259     
    1065.924632814344        1065.930917966121        1065.937401564153     
    1065.944718399035        1065.953027034595        1065.961501042587     
    1065.971297645151        1065.980933026673        1065.991737946234     
    1066.002669010224        1066.013578994549        1066.025150591839     
    1066.036702821120        1066.048075815808        1066.059136934955     
    1066.070420209498        1066.081113020960        1066.091836229434     
    1066.103268854110        1066.114842790240        1066.098267097082     
    1081.009260618180        1081.009378808960        1081.009541868396     
    1081.009606100095        1081.009587686778        1081.009644777534     
    1081.009582614104        1081.009485518664        1081.009691055087     
    1081.010220504728        1081.010959420420        1081.012263381532     
    1081.013640017390        1081.015527428381        1081.018085546505     
    1081.021298463358        1081.025014407375        1081.029260750792     
    1081.034257769529        1081.040154476092        1081.046362038679     
    1081.053466343905        1081.061279277613        1081.069574367555     
    1081.078806326444        1081.088252224693        1081.098456594512     
    1081.109222773337        1081.119919318690        1081.131018321727     
    1081.142329935338        1081.153594558963        1081.164827506488     
    1081.176321425994        1081.186974859485        1081.197917123585     
    1081.209066126689        1081.221347757440        1081.208316665817     
    1096.130141272208        1096.130796630946        1096.131252471547     
    1096.131537050043        1096.131663789477        1096.131785364136     
    1096.131775959109        1096.131853527053        1096.132018570393     
    1096.132323637038        1096.132754621169        1096.133614554653     
    1096.134764519824        1096.136313832344        1096.138286890377     
    1096.140842410649        1096.143930994879        1096.147620547073     
    1096.151806986289        1096.156820797951        1096.162411195448     
    1096.168589857491        1096.175559871410        1096.183022133597     
    1096.191313269617        1096.199997507277        1096.209411876651     
    1096.219323836781        1096.229430709609        1096.240003132424     
    1096.250780656065        1096.261642782316        1096.272505636746     
    1096.283566314102        1096.294154663468        1096.304875923535     
    1096.315763031726        1096.328183845062        1096.318366234552     
    1111.322563561172        1111.322432507582        1111.322086484262     
    1111.321551779748        1111.320882620790        1111.320152407442     
    1111.319257653302        1111.318349361587        1111.317476860617     
    1111.316690394186        1111.315874411695        1111.315251776665     
    1111.315064702989        1111.315177701553        1111.315642101338     
    1111.315886014354        1111.317143886903        1111.319002507522     
    1111.321152019404        1111.323140481354        1111.326622506761     
    1111.330074684731        1111.333963519867        1111.339138289856     
    1111.343521287996        1111.349840428479        1111.355233564642     
    1111.361200922559        1111.368881818230        1111.375547100115     
    1111.382555774838        1111.389825453859        1111.397306440057     
    1111.404146992318        1111.411737086001        1111.418886992864     
    1111.425715964609        1111.434911472285        1111.427452261991     
    1126.465733925436        1126.465616823541        1126.465400098736     
    1126.465133228065        1126.464715829535        1126.464203894569     
    1126.463593575347        1126.463003563706        1126.462466184591     
    1126.461848562882        1126.461180265001        1126.460842572211     
    1126.460873691015        1126.461180453766        1126.461023037808     
    1126.461071500872        1126.462334981148        1126.463972623642     
    1126.464381171251        1126.466279372985        1126.469334344969     
    1126.470284390445        1126.473925694669        1126.476608823467     
    1126.480219175005        1126.483651986160        1126.488387453762     
    1126.491404257312        1126.496678320000        1126.502197548584     
    1126.506706171281        1126.511544591099        1126.516052578684     
    1126.519944701587        1126.525305036206        1126.529636497444     
    1126.534400340732        1126.541090447827        1126.536217381934     
    1141.613105249538        1141.612984358752        1141.612783723241     
    1141.612508888404        1141.612157919674        1141.611745995176     
    1141.611318607414        1141.610905328464        1141.610461271911     
    1141.610007664410        1141.609529778058        1141.609422514036     
    1141.609419640945        1141.609146712815        1141.608908221478     
    1141.609045294235        1141.609962909834        1141.610013769325     
    1141.610086923579        1141.611882941614        1141.612351144879     
    1141.612728040501        1141.615192700469        1141.615659986116     
    1141.618441756835        1141.618978427740        1141.621864039169     
    1141.623390674791        1141.625205663655        1141.627874975973     
    1141.630352029214        1141.632566215198        1141.634483693867     
    1141.636952762221        1141.638842265984        1141.640862672605     
    1141.642946697305        1141.646603619508        1141.644850589184     
    1156.753100000000        1156.753100000000        1156.753100000000     
    1156.753100000000        1156.753100000000        1156.753100000000     
    1156.753100000000        1156.753100000000        1156.753100000000     
    1156.753100000000        1156.753100000000        1156.753100000000     
    1156.753100000000        1156.753100000000        1156.753100000000     
    1156.753100000000        1156.753100000000        1156.753100000000     
    1156.753100000000        1156.753100000000        1156.753100000000     
    1156.753100000000        1156.753100000000        1156.753100000000     
    1156.753100000000        1156.753100000000        1156.753100000000     
    1156.753100000000        1156.753100000000        1156.753100000000     
    1156.753100000000        1156.753100000000        1156.753100000000     
    1156.753100000000        1156.753100000000        1156.753100000000     
    1156.753100000000        1156.753100000000        1156.753052532940     
    164.9291702039702        164.7896171988458        164.6773381700825     
    164.5917179963814        164.5317148891105        164.4974000351393     
    164.4879380034466        164.5028678884489        164.5427261837962     
    164.6093217382574        164.7003595549804        164.8159172586463     
    164.9553116788768        165.1184788369432        165.3086058164643     
    165.5244688931926        165.7645785015711        166.0293064933970     
    166.3223846019595        166.6417384070830        166.9859116348576     
    167.3582193465980        167.7574579891864        168.1816283562979     
    168.6353637010507        169.1134456531412        169.6217294190363     
    170.1559706091333        170.7198903282250        171.3144732549987     
    171.9408168810560        172.6024902527284        173.3046340473177     
    174.0552059724213        174.8691551863336        175.7761776185249     
    176.8479446219849        178.2733028488696        181.0707799576638     
    166.2769778852334        166.1300990377844        166.0085368363414     
    165.9116984775931        165.8400037428320        165.7953920944025     
    165.7765857446360        165.7817520644199        165.8114087800798     
    165.8636745653698        165.9391311387081        166.0406793069977     
    166.1675446058004        166.3176025924237        166.4896401492528     
    166.6844811789986        166.9087311940784        167.1576378984047     
    167.4279695316516        167.7242135059889        168.0508610589617     
    168.3983454451264        168.7732411103208        169.1772531824866     
    169.6003600987497        170.0586529468467        170.5348048880052     
    171.0441950875292        171.5804959306747        172.1430268577282     
    172.7380983242826        173.3703439712222        174.0408627828770     
    174.7623609324813        175.5452498063768        176.4216692529011     
    177.4596366052843        178.8517906586068        181.5790256746757     
    167.6260230737243        167.4707134441532        167.3414433518336     
    167.2365601731419        167.1564428054791        167.1011004768655     
    167.0696620159159        167.0616155031695        167.0803621989625     
    167.1219673679212        167.1863089089216        167.2736738194575     
    167.3833215559671        167.5172157815906        167.6754466940057     
    167.8560000097756        168.0589703837576        168.2866695319563     
    168.5405427784748        168.8169402555014        169.1167132214019     
    169.4461499603330        169.7970329016999        170.1751324811242     
    170.5768683795143        171.0052402540330        171.4578636265444     
    171.9386382866195        172.4433881559178        172.9807915045583     
    173.5481814224450        174.1491736049335        174.7889650337198     
    175.4757442128572        176.2276839514590        177.0717122586259     
    178.0813402717474        179.4457764266865        182.1303901279375     
    169.0563361261530        168.8856147151281        168.7465582447282     
    168.6330388103307        168.5439295030853        168.4792059227378     
    168.4380039895531        168.4179797411256        168.4176997023879     
    168.4482594672955        168.5011355934209        168.5765631095400     
    168.6738095518911        168.7856035658277        168.9284342681908     
    169.0949345555801        169.2833718028766        169.4872113764817     
    169.7223315587193        169.9825982984913        170.2615490445760     
    170.5659321891647        170.8994142177949        171.2475130231126     
    171.6312420764067        172.0293986089100        172.4636410099635     
    172.9144196307814        173.3982458623834        173.9085720524419     
    174.4472099582896        175.0202052676546        175.6328272215147     
    176.2932825188448        177.0131351766042        177.8282602277746     
    178.8117656153708        180.1498711912727        182.7879191718810     
    170.5052019493280        170.3263855256121        170.1797082554588     
    170.0572635272686        169.9588841103878        169.8842291270184     
    169.8265874791086        169.7913300737952        169.7812509427163     
    169.8005651424684        169.8418052538931        169.9041629019272     
    169.9801144312329        170.0766539269822        170.2069222542999     
    170.3594354977374        170.5265629526379        170.7096374623795     
    170.9302663656066        171.1735933006169        171.4241683984638     
    171.7128197573785        172.0238866830022        172.3478936302205     
    172.7139719467777        173.0826650329098        173.4965383110881     
    173.9206849477305        174.3750544329446        174.8652697558467     
    175.3795079597014        175.9256919995027        176.5123309973677     
    177.1417978175789        177.8368676396405        178.6241792703436     
    179.5819507535338        180.8910206173890        183.4772931705802     
    171.9540677949616        171.7676314199898        171.6128615032133     
    171.4814944425534        171.3680823747825        171.2779088248879     
    171.2102949086594        171.1646948023524        171.1448298211119     
    171.1529049786636        171.1775602500670        171.2206397628257     
    171.2841105236020        171.3682446144975        171.4854728771792     
    171.6159875503105        171.7638607841471        171.9321214964701     
    172.1382803980439        172.3523938338186        172.5868503497759     
    172.8597270738645        173.1404903338658        173.4483491003321     
    173.7838529343886        174.1359966164533        174.5195271199634     
    174.9270057029706        175.3518966151117        175.8142121376787     
    176.3044055436362        176.8260697374240        177.3845364259603     
    177.9881194216988        178.6605828223454        179.4200655193090     
    180.3491638454215        181.6321825341107        184.1666671692750     
    173.4029336614529        173.2092287761493        173.0402354692222     
    172.8941922506942        172.7713535388791        172.6715686529072     
    172.5939772493432        172.5380289249599        172.5061213611562     
    172.4957581013817        172.5060468353768        172.5370531301959     
    172.5880364698507        172.6600466221111        172.7537976998562     
    172.8675789395909        173.0010538380469        173.1551600298989     
    173.3331167887124        173.5310673622429        173.7494070586694     
    173.9929907767629        174.2569585139331        174.5437007883160     
    174.8535022847628        175.1858707460195        175.5423887538194     
    175.9233341594887        176.3286352198093        176.7630565494621     
    177.2262298556655        177.7217802215492        178.2550727266346     
    178.8344130180642        179.4775566072912        180.2135017233458     
    181.1154803408303        182.3746285691308        184.8560411679698     
    174.8945745637785        174.6953896966994        174.5229685821262     
    174.3729573841703        174.2455962259233        174.1407131925218     
    174.0574745737223        173.9910220783405        173.9495222667044     
    173.9318322983229        173.9343492417242        173.9571304681148     
    173.9976029871912        174.0544978014276        174.1387097877260     
    174.2425510566269        174.3656858817392        174.5009800079911     
    174.6671156598272        174.8532645781437        175.0525108813193     
    175.2810337081676        175.5317314274563        175.7954031678958     
    176.0911291731259        176.3998110308221        176.7417651001644     
    177.0990351795148        177.4836197978935        177.9007039447970     
    178.3411466471607        178.8145054996576        179.3261127276080     
    179.8826833651440        180.5014499158332        181.2134688325887     
    182.0929119887099        183.3272129452586        185.7580558654647     
    176.3877557434175        176.1865404730286        176.0110546645869     
    175.8574244791681        175.7258781270979        175.6132004797309     
    175.5205096751065        175.4480622289088        175.4005052037225     
    175.3757857876430        175.3708279629933        175.3816923008373     
    175.4096777371530        175.4583237207721        175.5333121040726     
    175.6274092509794        175.7323910779212        175.8572902401747     
    176.0123728936554        176.1825767718297        176.3650373407279     
    176.5814720970608        176.8112337026677        177.0602170932348     
    177.3381476155666        177.6274534472504        177.9491311864282     
    178.2889219553521        178.6499737563721        179.0466722075541     
    179.4696506326371        179.9222529053371        180.4102991968328     
    180.9414982094237        181.5408054976405        182.2289773656504     
    183.0847296188289        184.2953734958671        186.6760756452031     
    177.8809369397704        177.6776902891178        177.4991393292240     
    177.3394784400287        177.2001100138318        177.0817032418807     
    176.9835407151534        176.9051014587471        176.8514920988776     
    176.8184951947471        176.8008023860082        176.8020926900269     
    176.8217570369851        176.8621608728184        176.9265523036500     
    177.0036966479283        177.0986747150657        177.2136174399157     
    177.3544570489756        177.5070361360646        177.6775780995766     
    177.8782083394429        178.0889086186969        178.3250522281254     
    178.5792200174616        178.8551151237217        179.1528247127053     
    179.4769408898949        179.8163378917923        180.1903828753981     
    180.5912891698126        181.0225935829712        181.4895143305905     
    182.0003119974994        182.5775129890035        183.2444803629729     
    184.0747133361921        185.2635011492861        187.5940954249433     
    179.3816209141668        179.1746993410734        178.9901993968389     
    178.8261450921738        178.6826957618657        178.5596490017741     
    178.4563428903288        178.3722440417422        178.3088395363325     
    178.2654783081286        178.2405790450012        178.2342765632024     
    178.2459696072301        178.2755921586710        178.3256638478592     
    178.3935755754266        178.4789507238019        178.5817842652465     
    178.7056368944654        178.8471921062841        179.0057316395392     
    179.1858734180787        179.3841876765348        179.6010374790040     
