           18
    343.1040853049511        342.9958364156479        342.8340746259003     
    342.6140866137955        342.3204668908887        341.9611434125211     
    341.5362009191647        341.0507242613969        340.5022511583905     
    339.8890043461944        339.2119333320982        338.4751892563076     
    337.6746544040578        336.8123669951960        335.8880542548147     
    334.9046441480990        333.8620588368792        332.7616158745726     
    331.5997210899853        330.3803098696759        329.1045886804796     
    327.7729306385663        326.3761609182495        324.9333634909418     
    323.4366548014031        321.8879893837814        320.2858905647552     
    318.6254515141656        316.9147307358823        315.1543013315663     
    313.3452095943396        311.4958443378128        309.5904109397865     
    307.6389436625363        305.6412278666319        303.5981301251747     
    301.5083854233843        299.3766166262636        297.2034000255298     
    294.9897651845297        292.7368043868682        290.4460049743150     
    343.1400000000000        343.1045375413107        342.9955586691781     
    342.8325543953094        342.6121822480537        342.3167734374014     
    341.9559377031214        341.5291118588173        341.0405295700115     
    340.4897525636280        339.8731272519369        339.1922758203298     
    338.4519357944652        337.6465002237039        336.7799617707360     
    335.8504880348880        334.8609722694734        333.8131462529665     
    332.7059150887723        331.5375849504147        330.3112507192316     
    329.0275063924988        327.6887718532207        326.2833373607747     
    324.8319136302121        323.3272580205849        321.7685230483386     
    320.1577316503715        318.4872364918294        316.7663317250669     
    314.9957170208158        313.1759160668086        311.3162341819465     
    309.3998718406023        307.4371360528521        305.4283796300650     
    303.3735635865800        301.2727745271245        299.1293320787805     
    296.9442269269420        294.7188930924422        292.4543727756762     
    290.1515686963648        343.1400000000000        343.1036616949987     
    342.9943183521362        342.8312166691173        342.6090611075892     
    342.3126843279130        341.9497547360805        341.5206584416262     
    341.0301514431141        340.4759097984725        339.8562792677248     
    339.1717692583553        338.4271181007522        337.6178822104166     
    336.7457846275133        335.8112259202853        334.8164057524391     
    333.7619931478602        332.6489203299116        331.4732572544526     
    330.2394760406244        328.9488210875609        327.6014038754292     
    326.1879422005389        324.7280561361470        323.2138090841927     
    321.6463234072136        320.0254321255979        318.3452511744321     
    316.6139924803675        314.8326444347280        313.0020874709042     
    311.1315251434416        309.2041256559773        307.2302480293220     
    305.2097452937753        303.1434571378720        301.0311107942238     
    298.8757521144147        296.6787563471421        294.4413386499523     
    292.1649848436320        289.8506710946103        343.1400000000000     
    343.1040519477930        342.9938618287471        342.8300438218492     
    342.6070642635449        342.3088790923121        341.9444646548599     
    341.5131650689085        341.0200490581508        340.4631251219740     
    339.8399011940498        339.1519904727561        338.4032509568897     
    337.5892951379960        336.7125882158601        335.7725143873934     
    334.7721704823566        333.7118171079371        332.5919747201257     
    331.4096779597100        330.1686592648726        328.8702450864182     
    327.5150269063564        326.0931784231607        324.6245469631208     
    323.1012585596611        321.5240666799766        319.8939072378174     
    318.2034862027546        316.4620071936197        314.6700675948512     
    312.8290882673998        310.9473995577860        309.0087281553880     
    307.0234953245898        304.9915319932110        302.9130751675229     
    300.7897741095979        298.6223168123229        296.4133064914726     
    294.1642526143225        291.8759554508585        289.5496127792865     
    343.1400000000000        343.1036872944688        342.9932027015433     
    342.8286293985136        342.6044692449971        342.3049784885836     
    341.9386354199390        341.5052942741300        341.0097617452952     
    340.4498556654461        339.8235198386362        339.1318820373376     
    338.3790711393407        337.5608312500260        336.6791052768368     
    335.7340931979364        334.7280056857234        333.6615838303362     
    332.5354523812290        331.3462058009018        330.0982602633584     
    328.7921916589098        327.4289275007541        325.9990716654068     
    324.5216806016727        322.9894085437923        321.4029152674387     
    319.7629115558342        318.0630249298171        316.3112543743125     
    314.5093035737069        312.6575603446886        310.7647081718339     
    308.8150506685803        306.8186117913182        304.7750571746594     
    302.6850188186592        300.5504746546809        298.3713232310634     
    296.1507608504814        293.8898626149320        291.5897248959378     
    289.2514233299378        343.1400000000000        343.1034918522463     
    342.9925021108129        342.8273127021873        342.6020042081202     
    342.3011334831069        341.9330641932353        341.4976213736413     
    340.9996661466090        340.4368746080468        339.8074253802293     
    339.1122094467285        338.3553391056244        337.5327985398378     
    336.6462916627138        335.6961639414937        334.6846015723008     
    333.6121664492181        332.4797306882169        331.2839883257714     
    330.0288668769564        328.7153354323122        327.3441624826606     
    325.9063491869854        324.4204069359068        322.8791994030580     
    321.2835404861991        319.6339513410099        317.9247953652859     
    316.1632806193970        314.3509738769280        312.4886743563698     
    310.5848561070583        308.6243105815711        306.6167792611408     
    304.5619780659845        302.4603953735478        300.3149793604663     
    298.1245763207714        295.8923998751556        293.6197572226310     
    291.3078849391133        288.9579107071514        343.1400000000000     
    343.1035575408775        342.9919290431631        342.8260499127153     
    342.5998270803277        342.2974097502550        341.9278286619217     
    341.4902995787221        340.9898516259648        340.4244345503699     
    339.7917515738168        339.0930535901241        338.3323023257099     
    337.5053622447547        336.6144945326399        335.6591405467445     
    334.6421640082575        333.5639840481739        332.4251871873893     
    331.2232296971567        329.9610615664548        328.6401328465558     
    327.2613760488339        325.8155465776755        324.3212375510636     
    322.7713565047177        321.1665511571212        319.5080252376363     
    317.7898261790048        316.0185116967759        314.1960880561903     
    312.3234350802749        310.4092119328217        308.4379310818639     
    306.4194756488436        304.3538644157234        302.2406361204688     
    300.0851869243177        297.8833199274059        295.6397287760666     
    293.3556391694623        291.0322720436534        288.6708678944125     
    343.1400000000000        343.1033355998132        342.9912998074555     
    342.8247498237216        342.5975253911029        342.2938200864012     
    341.9226385113600        341.4831714481235        340.9803844792184     
    340.4123803032665        339.7768152445590        339.0746818821183     
    338.3103357252876        337.4793501180491        336.5841430288248     
    335.6240416490086        334.6018866920717        333.5181879758562     
    332.3736475868273        331.1655722195277        329.8968227367477     
    328.5689843116047        327.1830037393738        325.7296138256519     
    324.2274183515090        322.6693480103245        321.0562819011885     
    319.3890757493538        317.6624157727196        315.8818153821757     
    314.0498383752139        312.1674609487417        310.2435796816319     
    308.2622547308992        306.2336205385818        304.1577186195878     
    302.0338470809999        299.8684758399414        297.6558892265517     
    295.4015303300198        293.1066631756249        290.7725317829413     
    288.4003477921046        343.1400000000000        343.1031524625084     
    342.9906563049277        342.8234852892585        342.5952929308044     
    342.2903998442332        341.9177167488692        341.4764274638608     
    340.9715615389234        340.4009972189709        339.7627780266686     
    339.0574534044781        338.2897264630618        337.4550009463471     
    336.5557069832154        335.5911486763311        334.5641893887122     
    333.4753378713567        332.3253951040027        331.1117147124989     
    329.8368151287179        328.5025795564578        327.1099288043598     
    325.6494607543073        324.1399458644805        322.5744372238968     
    320.9536184762558        319.2781428684393        317.5437497354408     
    315.7545151291166        313.9136917366853        312.0222666995966     
    310.0893779289120        308.0987390829338        306.0606137081617     
    303.9751696848136        301.8414275479560        299.6668623862174     
    297.4443321745792        295.1799582667495        292.8750659359539     
    290.5309227297896        288.1487260515313        343.1400000000000     
    343.1031273616860        342.9900836141857        342.8224685651335     
    342.5933124523942        342.2872650357043        341.9133774105326     
    341.4703393266574        340.9634481674073        340.3905970048888     
    339.7499537038972        339.0417905032280        338.2709419018124     
    337.4327296065115        336.5298419972548        335.5611766661398     
    334.5298528025323        333.4363774278016        332.2813729127461     
    331.0627606110062        329.7822820577705        328.4422694208507     
    327.0435460570114        325.5767195050796        324.0607684643712     
    322.4883912345053        320.8603441040740        319.1775100806034     
    317.4362115482191        315.6391829267496        313.7903954474867     
    311.8908040429099        309.9496538900867        307.9506511925578     
    305.9039419169256        303.8099545108495        301.6671888626355     
    299.4844678853195        297.2529060933527        294.9794917946144     
    292.6655320531711        290.3123160309940        287.9210619762297     
    343.1400000000000        343.1028098526618        342.9896354687251     
    342.8215404456045        342.5914709697291        342.2844684368512     
    341.9094411531858        341.4649457687561        340.9561773244803     
    340.3813820483758        339.7387209968837        339.0280245627906     
    338.2544462487138        337.4132360708718        336.5072793125500     
    335.5350681928898        334.4999613859633        333.4024065507971     
    332.2431160023041        331.0202863040004        329.7349982693147     
    328.3899974563768        326.9859666798204        325.5140033755442     
    323.9922878655153        322.4139597890371        320.7797662655213     
    319.0906110633633        317.3436198876500        315.5399265115744     
    313.6842879682396        311.7777460576312        309.8294609589861     
    307.8233659594378        305.7693146507543        303.6680266152550     
    301.5175920599605        299.3274721769150        297.0886349790794     
    294.8075110090541        292.4858177132536        290.1248700130080     
    287.7260914140772        343.1400000000000        343.1024412315413     
    342.9890869741672        342.8206141667065        342.5898115623110     
    342.2819449877497        341.9058594480111        341.4601703469853     
    340.9496919821287        340.3731397687653        339.7287986267202     
    339.0158261545039        338.2398398863748        337.3959336267559     
    336.4873651439053        335.5119722270602        334.4735771330694     
    333.3724712146762        332.2092999208882        330.9830297199873     
    329.6935668365057        328.3441841471477        326.9355314694099     
    325.4591309609675        323.9324444536697        322.3489020856260     
    320.7093690732491        319.0146920066269        317.2630006253585     
    315.4535297780052        313.5919976985030        311.6795476091840     
    309.7249073450682        307.7127322947146        305.6523229884010     
    303.5447518756923        301.3875802114829        299.1908620402442     
    296.9460565758407        294.6582211977514        292.3298756189075     
    289.9623846099755        287.5568607692599        343.1400000000000     
    343.1022693366218        342.9887037484092        342.8198253665043     
    342.5881894536922        342.2795639060461        341.9025092205026     
    341.4556648298390        340.9436306299308        340.3654264543990     
    339.7195764332661        339.0045183054112        338.2263458456682     
    337.3798922200480        336.4688724443998        335.4907502562130     
    334.4492269700109        333.3447824924884        332.1780796737989     
    330.9487181788396        329.6554115743095        328.3019432025908     
    326.8890474156698        325.4085941776366        323.8773240347271     
    322.2890481907774        320.6446101251553        318.9448882209587     
    317.1892129055906        315.3744390913234        313.5076112893715     
    311.5896172240948        309.6291453599949        307.6114832555610     
    305.5452256452968        303.4319420334302        301.2685527150540     
    299.0657910668764        296.8156907411858        294.5217964894756     
    292.1874357731393        289.8137568502373        287.4020323385407     
    343.1400146484375        343.0953726971566        342.9895793870064     
    342.8222612342751        342.5897140555949        342.2777643476384     
    341.9006913674109        341.4543830987419        340.9402930865213     
    340.3606586278131        339.7117994120705        338.9955403215848     
    338.2129922727241        337.3647039574239        336.4505514507460     
    335.4711895954335        334.4272512315231        333.3197375448001     
    332.1486097236046        330.9149132573248        329.6192580245755     
    328.2622783652321        326.8447628971269        325.3676277818231     
    323.8315573306352        322.2375831400524        320.5864264231802     
    318.8792084564780        317.1166986300753        315.3000785687373     
    313.4302877388186        311.5083439587742        309.5354575089461     
    307.5126115099261        305.4410227186718        303.3218245949992     
    301.1562459635349        298.9453651438141        296.6905767956109     
    294.3930453583027        292.0543020037695        289.6755647098094     
    287.2582393109428     
    992.8323974609400        992.8323974609400        992.8323974609400     
    992.8323974609400        992.8323974609400        992.8323974609400     
    992.8323974609400        992.8323974609400        992.8323974609400     
    992.8323974609400        992.8323974609400        992.8323974609400     
    992.8323974609400        992.8323974609400        992.8323974609400     
    992.8323974609400        992.8323974609400        992.8323974609400     
    992.8323974609400        992.8323974609400        992.8323974609400     
    992.8323974609400        992.8323974609400        992.8323974609400     
    992.8323974609400        992.8323974609400        992.8323974609400     
    992.8323974609400        992.8323974609400        992.8323974609400     
    992.8323974609400        992.8323974609400        992.8323974609400     
    992.8323974609400        992.8323974609400        992.8323974609400     
    992.8323974609400        992.8323974609400        992.8323974609400     
    992.8323974609400        992.8323974609400        992.8323974609400     
    992.8323974609375        998.1570789825787        998.1952763272387     
    998.2344307610646        998.2739642545253        998.3147404069327     
    998.3556388891709        998.3968072047120        998.4391031091255     
    998.4796116707043        998.5232598227129        998.5634218308319     
    998.6071123428109        998.6479017041213        998.6898154301008     
    998.7311713319139        998.7707321656069        998.8126259633646     
    998.8494668660244        998.8919028210299        998.9290955207183     
    998.9688834958222        999.0065536986456        999.0436717224956     
    999.0819168407821        999.1165155996383        999.1554316486926     
    999.1891741227549        999.2273068117538        999.2618778937202     
    999.2978437513307        999.3331837252733        999.3674251185856     
    999.4035016019369        999.4366671526967        999.4733241309181     
    999.5073904298271        999.5435335131281        999.5787769201911     
    999.6147611649540        999.6510416666035        999.6874637137076     
    999.7249941212360        999.7627472723730        1004.739175393635     
    1004.785793877866        1004.833295308814        1004.881029089952     
    1004.930143907539        1004.978916918375        1005.028714521234     
    1005.078475480268        1005.128100475099        1005.178710276688     
    1005.227493251164        1005.278746704528        1005.327284546088     
    1005.377871134317        1005.426593463548        1005.475541203969     
    1005.524375379882        1005.571393916814        1005.620292384194     
    1005.666146405906        1005.714225656711        1005.760135795558     
    1005.806210514066        1005.852236247484        1005.896407067799     
    1005.942605925743        1005.985343719764        1006.031422678481     
    1006.074510415531        1006.118986367584        1006.162539196582     
    1006.205681985544        1006.249658309160        1006.292057984073     
    1006.336441846651        1006.379317961999        1006.423608219776     
    1006.467369953714        1006.511733348753        1006.556385577253     
    1006.601278194581        1006.647020192533        1006.693097083808     
    1011.597966155577        1011.646345259016        1011.695397301935     
    1011.744867430390        1011.795137557756        1011.845274900915     
    1011.896356615011        1011.947244588958        1011.998293740763     
    1012.049789448701        1012.100272768866        1012.152194452311     
    1012.202036634347        1012.253857777894        1012.303720627518     
    1012.354340933746        1012.404150278079        1012.453336929736     
    1012.503074988139        1012.550995846195        1012.600377399261     
    1012.648206490905        1012.696070085201        1012.743848269590     
    1012.790264833653        1012.838041793454        1012.883176393771     
    1012.930931194503        1012.976213079082        1013.022760566727     
    1013.068410089957        1013.113868256823        1013.159783351878     
    1013.204709351863        1013.250927017861        1013.296173659052     
    1013.342401433224        1013.388311686754        1013.434678773470     
    1013.481302184084        1013.528145074197        1013.575640210102     
    1013.623446895244        1018.564005287083        1018.611560000288     
    1018.659619244961        1018.708086191031        1018.757058714550     
    1018.806044666902        1018.855669547245        1018.905252029645     
    1018.954847210196        1019.004902886286        1019.054079145436     
    1019.104429775227        1019.153043416441        1019.203359854995     
    1019.251938378822        1019.301357020958        1019.349835526044     
    1019.398186517921        1019.446552614557        1019.493919484106     
    1019.542000635126        1019.589247426922        1019.636185142162     
    1019.683336245862        1019.729186029819        1019.776274421914     
    1019.821162511498        1019.868172925672        1019.913122333424     
    1019.959223374471        1020.004524485352        1020.049702429000     
    1020.095175961154        1020.139975040285        1020.185665186206     
    1020.230709160708        1020.276417093210        1020.321943787452     
    1020.367796628329        1020.413864383833        1020.460097919415     
    1020.506821369133        1020.553796706679        1025.581844984788     
    1025.627352386613        1025.673229597386        1025.719433338972     
    1025.765967387095        1025.812609221758        1025.859565140317     
    1025.906677661669        1025.953566354873        1026.001051284884     
    1026.047601545215        1026.095298459847        1026.141462403232     
    1026.189065188650        1026.235173457514        1026.282115954295     
    1026.328112279606        1026.374275663679        1026.420160055497     
    1026.465670190869        1026.511256711939        1026.556658671115     
    1026.601406707986        1026.646711870801        1026.690669080309     
    1026.735892995658        1026.779197703581        1026.824282430190     
    1026.867611818547        1026.912022740922        1026.955720417008     
    1026.999329008675        1027.043138102794        1027.086482122968     
    1027.130441558297        1027.173979844305        1027.217939161271     
    1027.261810715018        1027.305897325883        1027.350156841776     
    1027.394522038545        1027.439242294840        1027.484146518115     
    1032.627379634574        1032.670211620581        1032.713326115271     
    1032.756638724193        1032.800185632162        1032.843875889072     
    1032.887605637277        1032.931663530356        1032.975259699274     
    1033.019610891213        1033.062907018678        1033.107407399473     
    1033.150477335071        1033.194808894996        1033.237822460269     
    1033.281668720232        1033.324575465987        1033.367865003857     
    1033.410675346917        1033.453592859605        1033.496091424379     
    1033.538934564004        1033.580833753939        1033.623599310453     
    1033.664942998559        1033.707629749095        1033.748572198453     
    1033.791084649652        1033.832044702804        1033.874064834882     
    1033.915427833401        1033.956730489653        1033.998165953507     
    1034.039290455221        1034.080826098934        1034.122103937311     
    1034.163619712142        1034.205111718247        1034.246729530594     
    1034.288480760777        1034.330281474873        1034.372328482811     
    1034.414496329550        1039.692336849179        1039.732031843794     
    1039.771958074117        1039.811938091876        1039.852089713051     
    1039.892395073694        1039.932503744756        1039.973070921784     
    1040.012985675344        1040.053776686914        1040.093413079971     
    1040.134305524875        1040.173828760036        1040.214508805524     
    1040.253969652526        1040.294317573262        1040.333682098373     
    1040.373657974714        1040.412954345115        1040.452769658998     
    1040.491777795519        1040.531550252078        1040.570166423549     
    1040.609885887223        1040.648145768920        1040.687804670144     
    1040.725851784747        1040.765339776995        1040.803406183090     
    1040.842555560148        1040.881062211855        1040.919560544177     
    1040.958115248104        1040.996501868774        1041.035118651241     
    1041.073614094273        1041.112198903180        1041.150806630755     
    1041.189465387364        1041.228219705194        1041.266972274436     
    1041.305878274032        1041.344846140986        1046.764943219548     
    1046.801283416579        1046.837857878395        1046.874400028321     
    1046.910898341213        1046.947640691052        1046.983956333268     
    1047.020860989635        1047.056929551786        1047.093986248417     
    1047.129844664471        1047.166908959388        1047.202690413266     
    1047.239575967645        1047.275299456242        1047.311995440758     
    1047.347637168190        1047.384137981974        1047.419737664001     
    1047.456233075896        1047.491615192071        1047.528109717829     
    1047.563287926138        1047.599762918056        1047.634769599498     
    1047.671205041456        1047.706138553325        1047.742446776721     
    1047.777412821111        1047.813518042062        1047.848964208767     
    1047.884476381450        1047.919952674760        1047.955410109039     
    1047.990913731836        1048.026425313922        1048.061894428993     
    1048.097424260556        1048.132935346899        1048.168505231742     
    1048.204022068182        1048.239607138908        1048.275195952421     
    1053.838613573874        1053.871546380730        1053.904756037137     
    1053.937855445238        1053.970686036384        1054.003858348005     
    1054.036399150837        1054.069632083048        1054.101888889851     
    1054.135203203144        1054.167329257538        1054.200555652013     
    1054.232578657024        1054.265717715684        1054.297683086070     
    1054.330764626663        1054.362660953250        1054.395727455783     
    1054.427587505543        1054.460707195972        1054.492495326837     
    1054.525653040722        1054.557404108460        1054.590575007774     
    1054.622315026223        1054.655470646725        1054.687216263766     
    1054.720330322822        1054.752125294842        1054.785151786136     
    1054.817465487840        1054.849944585922        1054.882276698492     
    1054.914743889248        1054.947076005608        1054.979534449637     
    1055.011840117525        1055.044233865580        1055.076549308025     
    1055.108888352272        1055.141127867248        1055.173361210557     
    1055.205545763856        1060.917755504988        1060.947272308263     
    1060.976876879420        1061.006435577464        1061.035500835382     
    1061.065014880821        1061.093709835003        1061.123189820105     
    1061.151594874640        1061.181070511856        1061.209356273150     
    1061.238715404979        1061.266873972226        1061.296223880952     
    1061.324323846448        1061.353727917263        1061.381768866967     
    1061.411256433924        1061.439317850837        1061.468893876297     
    1061.497018340255        1061.526668114379        1061.554891690553     
    1061.584585489106        1061.612918370479        1061.642630786715     
    1061.670993320825        1061.700776582760        1061.729207835547     
    1061.758994726526        1061.787981110296        1061.817253193366     
    1061.846252961795        1061.875526208803        1061.904523434845     
    1061.933736462963        1061.962710858243        1061.991791300561     
    1062.020746664861        1062.049694392072        1062.078503676860     
    1062.107246020600        1062.135895575292        1067.997014117703     
    1068.023168020098        1068.049187187237        1068.075264112732     
    1068.100610734442        1068.126527846754        1068.151439445178     
    1068.177227838687        1068.201872326282        1068.227543586592     
    1068.252017893488        1068.277595679149        1068.301912946831     
    1068.327544685462        1068.351796617733        1068.377561224180     
    1068.401768781945        1068.427641532739        1068.451967849334     
    1068.477956059152        1068.502455010602        1068.528546459529     
    1068.553254512718        1068.579418171563        1068.604279381433     
    1068.630544728493        1068.655456514747        1068.681884796088     
    1068.706885157817        1068.733390367528        1068.758980631038     
    1068.784994582446        1068.810600179808        1068.836605031334     
    1068.862228302626        1068.888133863381        1068.913735614311     
    1068.939455049628        1068.965014458713        1068.990539254665     
    1069.015894480821        1069.041134192313        1069.066245386728     
    1075.075175170867        1075.098019146861        1075.120445386943     
    1075.143097712477        1075.164764253568        1075.187152774604     
    1075.208410893025        1075.230511860743        1075.251455357426     
    1075.273414173102        1075.294137466840        1075.316029163698     
    1075.336561208748        1075.358567028447        1075.379022542966     
    1075.401167526392        1075.421648079919        1075.443918393132     
    1075.464599756149        1075.487007136802        1075.507948997744     
    1075.530479191645        1075.551722055715        1075.574347975096     
    1075.595719625280        1075.618573229363        1075.640014960739     
    1075.663102102226        1075.684653156981        1075.707871322632     
    1075.730039870330        1075.752784795933        1075.774974061279     
    1075.797678730682        1075.819923801718        1075.842498781961     
    1075.864721184360        1075.887068028106        1075.909228673312     
    1075.931331981311        1075.953240927781        1075.974996408988     
    1075.996595198163        1082.151537837471        1082.171142712502     
    1082.189977449987        1082.209281628834        1082.227390823267     
    1082.246245662287        1082.263943160264        1082.282409186774     
    1082.299722796010        1082.318059248507        1082.335102251432     
    1082.353403372912        1082.370219126572        1082.388648678968     
    1082.405413300821        1082.423974533554        1082.440836654380     
    1082.459535315014        1082.476667503848        1082.495519687539     
    1082.512984579208        1082.531976889576        1082.549729121652     
    1082.568917191084        1082.586807913678        1082.606301252625     
    1082.624279943108        1082.644061031784        1082.662169142825     
    1082.682121536960        1082.700872556761        1082.720361808176     
    1082.739138177644        1082.758541300575        1082.777427280808     
    1082.796676916743        1082.815537441956        1082.834525621416     
    1082.853308392776        1082.872014565325        1082.890506340362     
    1082.908815086362        1082.926945009598        1089.225541697288     
    1089.241702757729        1089.257030700702        1089.272924138348     
    1089.287763733562        1089.303251945136        1089.317743924022     
    1089.332971224326        1089.347127229554        1089.362294627789     
    1089.376216343871        1089.391354811381        1089.405063792925     
    1089.420285464368        1089.433946816127        1089.449273032664     
    1089.462965768201        1089.478392902056        1089.492267287356     
    1089.507806819430        1089.521908726707        1089.537545390831     
    1089.551775785586        1089.567611232411        1089.581954301669     
    1089.597976478527        1089.612386738201        1089.628589857782     
    1089.643114655197        1089.659398579216        1089.674559199979     
    1089.690280361179        1089.705494557535        1089.721148173972     
    1089.736428876096        1089.751970961792        1089.767212336110     
    1089.782547777995        1089.797735584815        1089.812858308266     
    1089.827804285597        1089.842617026399        1089.857294821034     
    1096.299944404776        1096.312203244977        1096.323841183987     
    1096.335754518162        1096.346839596701        1096.358465689960     
    1096.369152248787        1096.380653441867        1096.390961608427     
    1096.402553447125        1096.412610216098        1096.424225057294     
    1096.434170788608        1096.445892447092        1096.455942029326     
    1096.467798022323        1096.478021923618        1096.490006676099     
    1096.500549870485        1096.512670879511        1096.523470784907     
    1096.535799807237        1096.546732773419        1096.559371451827     
    1096.570425583888        1096.583326595622        1096.594453611149     
    1096.607595908792        1096.618839563676        1096.632096918442     
    1096.643974995766        1096.656618483885        1096.668591437343     
    1096.681120510750        1096.693168330431        1096.705530340954     
    1096.717520041298        1096.729613913829        1096.741516910925     
    1096.753334332360        1096.764938823686        1096.776374822233     
    1096.787644632469        1103.369013056232        1103.377668494005     
    1103.385799595070        1103.393985618503        1103.401311273484     
    1103.409173561995        1103.415899792197        1103.423694242362     
    1103.429871346344        1103.437692819160        1103.443697555162     
    1103.451508743297        1103.457561486931        1103.465501608378     
    1103.471862870711        1103.479986626365        1103.486748483414     
    1103.495069035919        1103.502358315673        1103.510925651893     
    1103.518414358565        1103.527561756896        1103.535247622694     
    1103.544933665161        1103.552795244698        1103.562944207917     
    1103.570921921912        1103.581474135229        1103.589615447490     
    1103.600405857403        1103.609208329581        1103.619290182525     
    1103.628343996697        1103.638239491499        1103.647420123349     
    1103.657049102449        1103.666157488642        1103.675394213971     
    1103.684349385471        1103.693169002072        1103.701701995081     
    1103.709970225687        1103.717994443905        1110.433186236002     
    1110.438585686861        1110.443624762292        1110.448628518164     
    1110.452780305945        1110.457513303311        1110.461004167789     
    1110.465563706180        1110.468600687249        1110.473140541329     
    1110.476051372788        1110.480550566140        1110.483534644819     
    1110.488143797611        1110.491461132176        1110.496240432350     
    1110.499969713729        1110.504940303402        1110.508882972909     
    1110.514423668641        1110.518569012605        1110.524693273803     
    1110.529042324328        1110.535704427113        1110.540238214189     
    1110.547358430785        1110.552018602258        1110.559534513660     
    1110.564375116006        1110.572024492055        1110.577631289343     
    1110.584534271382        1110.590433445711        1110.597152293434     
    1110.603172642535        1110.609624733802        1110.615566201359     
    1110.621624788841        1110.627411033633        1110.633052500355     
    1110.638408376089        1110.643497647388        1110.648344255340     
    1117.497889738642        1117.500003632866        1117.501970703967     
    1117.503798619834        1117.504787616161        1117.506322374117     
    1117.506682379376        1117.508001935799        1117.507949456261     
    1117.509210060231        1117.509072092586        1117.510257302389     
    1117.510216138121        1117.511486487725        1117.511796878036     
    1117.513217481986        1117.513612045655        1117.515541359506     
    1117.516127085463        1117.518640153879        1117.519417325014     
    1117.522514216826        1117.523491832246        1117.527118759730     
    1117.528287069421        1117.532356025283        1117.533658994436     
    1117.538105779414        1117.539604772382        1117.544020618173     
    1117.546437814776        1117.550115132382        1117.552821888493     
    1117.556317853522        1117.559140912052        1117.562373921357     
    1117.565114307981        1117.567959800725        1117.570547567919     
    1117.572984622464        1117.575141642338        1117.577036171620     
    1117.578694066775        1124.560491174639        1124.559518338854     
    1124.558407166645        1124.557177036277        1124.555094228060     
    1124.553533868057        1124.550875232165        1124.549061347607     
    1124.546026502274        1124.544119059153        1124.541025108485     
    1124.538994630161        1124.535964913847        1124.534030261795     
    1124.531065874661        1124.529546303687        1124.526640709499     
    1124.525617695942        1124.522892123757        1124.522428368343     
    1124.519885616907        1124.519978005830        1124.517628856641     
    1124.518224738990        1124.516060457603        1124.517075830251     
    1124.515045747421        1124.516289055488        1124.514593990998     
    1124.515755357430        1124.515007067168        1124.515449131001     
    1124.514978780762        1124.515251099916        1124.514888506275     
    1124.514911090760        1124.514464765793        1124.514115249534     
    1124.513527460862        1124.512789367028        1124.511782218707     
    1124.510525098392        1124.509043878211        1131.623164950456     
    1131.619190778133        1131.614893546147        1131.610622848761     
    1131.605431274960        1131.600790545788        1131.595089568711     
    1131.590154030989        1131.584124524812        1131.579058423614     
    1131.572881249746        1131.567773548226        1131.561469926404     
    1131.556626437324        1131.550369665427        1131.545926692136     
    1131.539715947274        1131.535744346117        1131.529707608167     
    1131.526271487035        1131.520406849819        1131.517499055426     
    1131.511821674450        1131.509387695555        1131.503893822876     
    1131.501790039762        1131.496491772712        1131.494449079523     
    1131.489632345942        1131.487521387682        1131.483608706849     
    1131.480806554428        1131.477156209691        1131.474199281484     
    1131.470646528499        1131.467455307677        1131.463818314757     
    1131.460271962993        1131.456505475756        1131.452591844404     
    1131.448419464938        1131.444011794770        1131.439393689646     
    1138.681314613898        1138.674429743404        1138.666954562004     
    1138.659738093027        1138.651486789965        1138.643854469947     
    1138.635163743102        1138.627221854617        1138.618128053615     
    1138.610166375058        1138.600857298842        1138.592936041940     
    1138.583472831470        1138.575840304884        1138.566402227367     
    1138.559176595015        1138.549761650658        1138.542997939742     
    1138.533741690145        1138.527487397825        1138.518397564122     
    1138.512639205791        1138.503734609339        1138.498360576767     
    1138.489695403721        1138.484419263235        1138.476149897268     
    1138.470940463634        1138.463123673311        1138.457854078086     
    1138.450895983020        1138.444960172450        1138.438247222748     
    1138.432167846555        1138.425539549073        1138.419239993088     
    1138.412523116326        1138.405886404087        1138.399049874706     
    1138.392068087571        1138.384838744854        1138.377389117897     
    1138.369743501082        1145.739829163346        1145.729633901120     
    1145.718861771298        1145.708376733408        1145.696997242666     
    1145.686219053983        1145.674433584476        1145.663541896434     
    1145.651366320758        1145.640611187076        1145.628230485349     
    1145.617615724174        1145.605080775390        1145.594808646403     
    1145.582292836250        1145.572438169921        1145.559928280497     
    1145.550510852592        1145.538141982449        1145.529184086794     
    1145.516961202416        1145.508306372752        1145.496374935907     
    1145.487846366724        1145.476318667575        1145.467847045967     
    1145.456661462932        1145.448233177584        1145.437438072914     
    1145.428935509046        1145.418915165690        1145.409760892681     
    1145.399941190802        1145.390648351509        1145.380881794227     
    1145.371385169278        1145.361519349869        1145.351714151314     
    1145.341743745578        1145.331634935294        1145.321302445444     
    1145.310781150643        1145.300093312517        1152.798296737117     
    1152.784650076120        1152.770653514512        1152.756894768724     
    1152.742262703395        1152.728387762576        1152.713331214691     
    1152.699489616405        1152.684025092831        1152.670443026738     
    1152.654763766576        1152.641412144329        1152.625573524544     
    1152.612631299024        1152.596812189528        1152.584327929305     
    1152.568511550606        1152.556454217971        1152.540807709812     
    1152.528969550145        1152.513709926621        1152.502049097819     
    1152.487194403890        1152.475647291997        1152.461187579746     
    1152.449685380977        1152.435551521693        1152.424079073350     
    1152.410322577162        1152.398765291187        1152.385740161224     
    1152.373546860701        1152.360706915921        1152.348367024731     
    1152.335565232748        1152.323017319830        1152.310106081288     
    1152.297249917522        1152.284235036826        1152.271082132437     
    1152.257707769184        1152.244154921436        1152.230443123952     
    1159.854924542105        1159.838287892899        1159.821290022537     
    1159.804652356601        1159.786929627212        1159.770261202481     
    1159.752040325868        1159.735473551090        1159.716774113853     
    1159.700527408938        1159.681556784370        1159.665576117102     
    1159.646398028751        1159.630729815201        1159.611657291782     
    1159.596235987053        1159.577358437416        1159.562159779366     
    1159.543639040451        1159.528662984197        1159.510508297406     
    1159.495716300561        1159.477945038974        1159.463276071355     
    1159.445879318249        1159.431266950357        1159.414175844283     
    1159.399609060428        1159.382879360167        1159.368244483765     
    1159.352203853931        1159.336968583393        1159.321114675391     
    1159.305738837985        1159.289924052026        1159.274349485132     
    1159.258427500564        1159.242556340010        1159.226540089933     
    1159.210386562646        1159.194018601115        1159.177480990133     
    1159.160792935388        1166.910936803302        1166.891340567495     
    1166.871468128035        1166.852032012200        1166.831389868053     
    1166.812027420533        1166.790853425700        1166.771548642032     
    1166.749966503903        1166.730861545045        1166.709134989332     
    1166.690105858895        1166.668321006291        1166.649494828953     
    1166.627860013655        1166.609248699157        1166.587753381139     
    1166.569334779703        1166.548132935048        1166.529912472647     
    1166.509006339567        1166.490951541260        1166.470358573908     
    1166.452415516005        1166.432130932800        1166.414241572568     
    1166.394200856957        1166.376365006084        1166.356631826792     
    1166.338743208739        1166.319621498362        1166.301183396375     
    1166.282226711731        1166.263673843117        1166.244747709077     
    1166.226029271145        1166.207006023737        1166.188031150805     
    1166.168944563720        1166.149735848298        1166.130337089292     
    1166.110801161927        1166.091142746823        1173.966328976941     
    1173.943760211794        1173.921023442850        1173.898653902982     
    1173.875238173275        1173.852874557194        1173.829071797039     
    1173.806733973004        1173.782591262322        1173.760424316796     
    1173.736178776503        1173.714051806590        1173.689747079498     
    1173.667787962996        1173.643605319176        1173.621826397511     
    1173.597730808913        1173.576112246743        1173.552248606225     
    1173.530801542289        1173.507164131880        1173.485862442614     
    1173.462468072887        1173.441265231801        1173.418112787709     
    1173.396959463374        1173.373988356862        1173.352895562439     
    1173.330177002585        1173.309046387257        1173.286857235505     
    1173.265230967024        1173.243184870295        1173.221469393544     
    1173.199445366125        1173.177598298580        1173.155487175294     
    1173.133424872549        1173.111281702645        1173.089034667373     
    1173.066620472114        1173.044103395534        1173.021492558259     
    1181.021234647970        1180.995735366242        1180.970083762763     
    1180.944772874324        1180.918592971180        1180.893258431098     
    1180.866807018516        1180.841464556110        1180.814750529697     
    1180.789547775961        1180.762780448843        1180.737579487944     
    1180.710758706807        1180.685687980899        1180.658966193471     
    1180.634038671216        1180.607354853579        1180.582553286414     
    1180.556042122239        1180.531383634368        1180.505030551256     
    1180.480495650100        1180.454316106503        1180.429865924244     
    1180.403861981281        1180.379456168511        1180.353570727729     
    1180.329231794696        1180.303543211131        1180.279181182152     
    1180.253935853321        1180.229134914479        1180.204010691282     
    1180.179145707347        1180.154035301535        1180.129072764266     
    1180.103885686939        1180.078749342876        1180.053562161443     
    1180.028290640937        1180.002874576133        1179.977390801522     
    1179.951842369694        1188.075458106860        1188.047058506020     
    1188.018450310717        1187.990229763107        1187.961259838598     
    1187.932987579871        1187.903875203759        1187.875561835354     
    1187.846275316008        1187.818070404995        1187.788789158341     
    1187.760547044355        1187.731225044759        1187.703073713076     
    1187.673832227580        1187.645784679245        1187.616534788794     
    1187.588575998870        1187.559440801493        1187.531593686836     
    1187.502548719633        1187.474800397575        1187.445859005054     
    1187.418178394239        1187.389345346695        1187.361701371054     
    1187.332922646861        1187.305349757734        1187.276710449130     
    1187.249127777171        1187.220840567047        1187.192877752159     
    1187.164688637497        1187.136686668240        1187.108502680061     
    1187.080437725957        1187.052187781660        1187.023991478786     
    1186.995774435202        1186.967494048660        1186.939092187757     
    1186.910659457110        1186.882192181130        1195.129678630331     
    1195.098208727451        1195.066688152814        1195.035414366130     
    1195.003659133285        1194.972363308523        1194.940546422384     
    1194.909242705195        1194.877297271051        1194.846131254306     
    1194.814222859880        1194.783024723689        1194.751085769803     
    1194.719959466656        1194.688101312333        1194.657036918273     
    1194.625159333044        1194.594124998684        1194.562350777293     
