  18
    0.770044    0.827331    0.880326    0.928166    0.963035    0.986680
    0.993380    0.987130    0.974347    0.951683    0.924573    0.893933
    0.860344    0.826466    0.792446    0.758969    0.727667    0.697967
    0.667431    0.637783    0.609790    0.584648    0.604613    0.616964
    0.648534    0.700243    0.759539    0.815697    0.867642    0.914528
    0.948699    0.971866    0.978427    0.972296    0.959761    0.937541
    0.910963    0.880924    0.847992    0.814777    0.781421    0.748599
    0.717910    0.688793    0.658859    0.629798    0.602362    0.577722
    0.597210    0.609310    0.640241    0.690905    0.749007    0.804032
    0.854926    0.900856    0.934326    0.957015    0.963436    0.957424
    0.945138    0.923363    0.897318    0.867881    0.835608    0.803057
    0.770368    0.738202    0.708128    0.679596    0.650266    0.621793
    0.594915    0.570778    0.589793    0.601642    0.631932    0.681551
    0.738457    0.792347    0.842186    0.887159    0.919927    0.942137
    0.948418    0.942524    0.930488    0.909160    0.883648    0.854814
    0.823202    0.791316    0.759295    0.727787    0.698329    0.670382
    0.641656    0.613773    0.587454    0.563821    0.582330    0.593930
    0.623580    0.672156    0.727869    0.780628    0.829415    0.873430
    0.905496    0.927227    0.933368    0.927594    0.915807    0.894926
    0.869949    0.841717    0.810765    0.779542    0.748187    0.717334
    0.688489    0.661125    0.633001    0.605705    0.579942    0.556810
    0.574730    0.586078    0.615085    0.662612    0.717124    0.768745
    0.816474    0.859528    0.890889    0.912140    0.918139    0.912485
    0.900948    0.880514    0.856073    0.828446    0.798157    0.767602
    0.736916    0.706723    0.678495    0.651719    0.624202    0.597497
    0.572295    0.549669    0.567132    0.578228    0.606592    0.653070
    0.706383    0.756866    0.803537    0.845631    0.876288    0.897057
    0.902916    0.897381    0.886094    0.866108    0.842202    0.815180
    0.785553    0.755665    0.725649    0.696115    0.668506    0.642317
    0.615406    0.589292    0.564650    0.542530    0.559542    0.570388
    0.598109    0.643539    0.695654    0.745000    0.790615    0.831749
    0.861702    0.881991    0.887709    0.882293    0.871256    0.851717
    0.828346    0.801929    0.772963    0.743742    0.714395    0.685520
    0.658527    0.632925    0.606620    0.581097    0.557015    0.535400
    0.551967    0.562561    0.589641    0.634026    0.684944    0.733155
    0.777716    0.817892    0.847143    0.866952    0.872530    0.867233
    0.856445    0.837352    0.814515    0.788701    0.760396    0.731840
    0.703161    0.674943    0.648566    0.623550    0.597849    0.572916
    0.549393    0.528282    0.544410    0.554755    0.581195    0.624536
    0.674261    0.721340    0.764850    0.804070    0.832621    0.851952
    0.857389    0.852211    0.841671    0.823024    0.800720    0.775507
    0.747861    0.719968    0.691955    0.664394    0.638630    0.614198
    0.589101    0.564756    0.541790    0.521182    0.536877    0.546973
    0.572777    0.615079    0.663616    0.709568    0.752030    0.790298
    0.818151    0.837006    0.842304    0.837244    0.826951    0.808748
    0.786974    0.762361    0.735371    0.708139    0.680789    0.653881
    0.628729    0.604879    0.580382    0.556621    0.534210    0.514102
    0.529373    0.539221    0.564392    0.605661    0.653016    0.697847
    0.739268    0.776590    0.803749    0.822130    0.827290    0.822347
    0.812301    0.794538    0.773292    0.749275    0.722937    0.696362
    0.669672    0.643413    0.618869    0.595597    0.571698    0.548519
    0.526660    0.507050    0.521905    0.531507    0.556046    0.596287
    0.642466    0.686182    0.726566    0.762947    0.789415    0.807325
    0.812346    0.807521    0.797720    0.780395    0.759674    0.736250
    0.710562    0.684641    0.658607    0.632994    0.609056    0.586360
    0.563054    0.540455    0.519146    0.500031    0.514477    0.523834
    0.547747    0.586965    0.631974    0.674581    0.713934    0.749378
    0.775160    0.792601    0.797485    0.792775    0.783218    0.766330
    0.746131    0.723296    0.698254    0.672983    0.647602    0.622632
    0.599296    0.577172    0.554458    0.532435    0.511672    0.493051
    0.507096    0.516208    0.539498    0.577700    0.621547    0.663051
    0.701379    0.735892    0.760992    0.777967    0.782715    0.778121
    0.768805    0.752351    0.732671    0.710423    0.686022    0.661398
    0.636665    0.612334    0.589596    0.568042    0.545915    0.524465
    0.504245    0.486113    0.499765    0.508636    0.531307    0.568499
    0.611192    0.651601    0.688912    0.722501    0.746923    0.763435
    0.768047    0.763568    0.754493    0.738469    0.719305    0.697638
    0.673875    0.649892    0.625804    0.602108    0.579964    0.558974
    0.537431    0.516550    0.496869    0.479223    0.492620    0.501248
    0.523299    0.559480    0.601017    0.640333    0.676630    0.709299
    0.733048    0.749101    0.753579    0.749215    0.740380    0.724786
    0.706135    0.685050    0.661923    0.638584    0.615142    0.592083
    0.570536    0.550115    0.529159    0.508850    0.489713    0.472556
    0.485576    0.493966    0.515408    0.550596    0.590997    0.629235
    0.664531    0.696291    0.719374    0.734972    0.739317    0.735066
    0.726467    0.711297    0.693154    0.672641    0.650142    0.627434
    0.604627    0.582192    0.561230    0.541365    0.520983    0.501234
    0.482628    0.465950    0.478597    0.486751    0.507589    0.541793
    0.581068    0.618239    0.652544    0.683402    0.705824    0.720972
    0.725185    0.721046    0.712682    0.697932    0.680291    0.660346
    0.638469    0.616387    0.594208    0.572391    0.552009    0.532695
    0.512882    0.493688    0.475608    0.459404    0.471687    0.479607
    0.499848    0.533077    0.571238    0.607353    0.640675    0.670641
    0.692410    0.707111    0.711193    0.707165    0.699034    0.684699
    0.667556    0.648173    0.626911    0.605449    0.583892    0.562688
    0.542879    0.524112    0.504862    0.486217    0.468657    0.452924
    0.464850    0.472540    0.492190    0.524455    0.561513    0.596582
    0.628933    0.658017    0.679138    0.693397    0.697351    0.693433
    0.685531    0.671608    0.654957    0.636130    0.615477    0.594628
    0.573686    0.553089    0.533847    0.515620    0.496927    0.478826
    0.461781    0.446512    0.458092    0.465553    0.484619    0.515931
    0.551900    0.585935    0.617325    0.645536    0.666018    0.679841
    0.683667    0.679857    0.672182    0.658666    0.642502    0.624224
    0.604173    0.583930    0.563597    0.543599    0.524918    0.507225
    0.489083    0.471519    0.454983    0.440647    0.579349    0.583856
    0.596207    0.615176    0.635498    0.652769    0.666471    0.677583
    0.684893    0.691399    0.693845    0.691672    0.688188    0.684071
    0.678866    0.672582    0.665151    0.657114    0.648516    0.639603
    0.630963    0.622524    0.613557    0.604636    0.596037    0.588192
    0.756927    0.761523    0.774040    0.793113    0.813466    0.830522
    0.843744    0.854202    0.860458    0.863931    0.863681    0.860686
    0.856427    0.850007    0.842478    0.833899    0.824241    0.814099
    0.803533    0.792808    0.782526    0.772614    0.762334    0.752273
    0.742709    0.734079    0.959805    0.963865    0.975224    0.991701
    1.008627    1.021566    1.030107    1.035787    1.037542    1.036892
    1.033747    1.028739    1.022348    1.013657    1.003836    0.994042
    0.983775    0.973184    0.962329    0.951447    0.941057    0.931162
    0.921220    0.911707    0.902846    0.894991    1.203792    1.207366
    1.217298    1.231196    1.245211    1.255162    1.261203    1.264568
    1.264700    1.262964    1.258928    1.253286    1.246963    1.239483
    1.231425    1.222793    1.213513    1.203906    1.194032    1.184111
    1.174617    1.165565    1.156476    1.147775    1.139670    1.132480
    1.444028    1.447124    1.455649    1.467008    1.478157    1.485168
    1.488746    1.489832    1.488365    1.485561    1.481153    1.475695
    1.469759    1.462989    1.455756    1.448027    1.439718    1.431080
    1.422173    1.413199    1.404585    1.396364    1.388114    1.380214
    1.372853    1.366317    1.680374    1.683001    1.690142    1.699057
    1.707584    1.711944    1.713299    1.712243    1.709141    1.705102
    1.700026    1.694504    1.688949    1.682876    1.676455    1.669614
    1.662261    1.654576    1.646620    1.638577    1.630831    1.623426
    1.616003    1.608890    1.602260    1.596370    1.912648    1.915068
    1.921587    1.929597    1.937269    1.941055    1.942228    1.941134
    1.938240    1.934511    1.929863    1.924730    1.919307    1.913395
    1.907152    1.900507    1.893370    1.885913    1.878195    1.870398
    1.862892    1.855723    1.848547    1.841680    1.835287    1.829612
    2.140775    2.143003    2.148916    2.156023    2.162856    2.166077
    2.167072    2.165941    2.163252    2.159826    2.155598    2.150965
    2.146053    2.140701    2.135041    2.129000    2.122495    2.115683
    2.108617    2.101465    2.094572    2.087979    2.081367    2.075030
    2.069122    2.063871    2.364639    2.366678    2.371997    2.378218
    2.384228    2.386895    2.387715    2.386547    2.384059    2.380931
    2.377115    2.372971    2.368563    2.363761    2.358672    2.353223
    2.347339    2.341159    2.334732    2.328214    2.321922    2.315895
    2.309837    2.304019    2.298588    2.293753    2.584130    2.585983
    2.590720    2.596142    2.601399    2.603615    2.604293    2.603125
    2.600835    2.597986    2.594547    2.590847    2.586898    2.582602
    2.578043    2.573147    2.567848    2.562270    2.556456    2.550548
    2.544839    2.539362    2.533843    2.528534    2.523569    2.519142
    2.799144    2.800813    2.804980    2.809748    2.814345    2.816260
    2.816846    2.815749    2.813676    2.811105    2.808023    2.804717
    2.801182    2.797335    2.793247    2.788849    2.784078    2.779046
    2.773794    2.768449    2.763279    2.758315    2.753306    2.748482
    2.743966    2.739935    3.009580    3.011069    3.014680    3.018806
    3.022758    3.024379    3.024874    3.023846    3.021987    3.019686
    3.016954    3.014034    3.010904    3.007497    3.003871    2.999958
    2.995704    2.991208    2.986505    2.981711    2.977070    2.972607
    2.968097    2.963747    2.959671    2.956028    3.215349    3.216662
    3.219728    3.223228    3.226549    3.227882    3.228288    3.227327
    3.225677    3.223642    3.221250    3.218708    3.215974    3.212998
    3.209822    3.206385    3.202636    3.198663    3.194498    3.190243
    3.186118    3.182146    3.178123    3.174238    3.170591    3.167328
    3.416381    3.417525    3.420093    3.423044    3.425829    3.426932
    3.427265    3.426382    3.424925    3.423135    3.421052    3.418849
    3.416474    3.413890    3.411129    3.408132    3.404857    3.401378
    3.397723    3.393984    3.390354    3.386855    3.383305    3.379871
    3.376642    3.373750    3.612612    3.613596    3.615736    3.618246
    3.620620    3.621569    3.621848    3.621068    3.619799    3.618240
    3.616435    3.614529    3.612472    3.610233    3.607838    3.605236
    3.602387    3.599358    3.596172    3.592910    3.589742    3.586686
    3.583582    3.580578    3.577752    3.575219    3.803947    3.804776
    3.806498    3.808579    3.810551    3.811351    3.811577    3.810897
    3.809811    3.808478    3.806945    3.805327    3.803580    3.801678
    3.799640    3.797422    3.794989    3.792398    3.789670    3.786874
    3.784155    3.781531    3.778863    3.776278    3.773845    3.771663
    3.990327    3.991005    3.992319    3.993982    3.995564    3.996217
    3.996392    3.995809    3.994902    3.993789    3.992520    3.991184
    3.989738    3.988165    3.986474    3.984630    3.982603    3.980440
    3.978157    3.975814    3.973533    3.971329    3.969086    3.966909
    3.964859    3.963018    4.171699    4.172230    4.173147    4.174404
    4.175606    4.176118    4.176243    4.175754    4.175020    4.174121
    4.173109    4.172047    4.170895    4.169640    4.168288    4.166809
    4.165176    4.163428    4.161579    4.159677    4.157823    4.156028
    4.154198    4.152419    4.150741    4.149232    4.347984    4.348402
    4.349122    4.350112    4.351059    4.351462    4.351559    4.351173
    4.350592    4.349881    4.349080    4.348241    4.347331    4.346340
    4.345273    4.344106    4.342818    4.341440    4.339983    4.338484
    4.337024    4.335610    4.334168    4.332766    4.331445    4.330256
    4.519181    4.519489    4.520021    4.520750    4.521449    4.521745
    4.521816    4.521529    4.521098    4.520571    4.519978    4.519357
    4.518683    4.517949    4.517159    4.516295    4.515342    4.514323
    4.513245    4.512137    4.511057    4.510012    4.508945    4.507910
    4.506933    4.506054    4.685261    4.685463    4.685811    4.686289
    4.686746    4.686939    4.686984    4.686793    4.686509    4.686161
    4.685769    4.685358    4.684913    4.684429    4.683908    4.683338
    4.682711    4.682039    4.681330    4.680600    4.679889    4.679201
    4.678500    4.677819    4.677176    4.676599    4.846205    4.846304
    4.846475    4.846708    4.846931    4.847024    4.847043    4.846947
    4.846803    4.846628    4.846432    4.846226    4.846003    4.845761
    4.845500    4.845216    4.844903    4.844568    4.844215    4.843853
    4.843499    4.843158    4.842810    4.842473    4.842155    4.841869
    5.002000    5.002000    5.001998    5.001995    5.001992    5.001987
    5.001982    5.001976    5.001970    5.001963    5.001955    5.001947
    5.001939    5.001931    5.001922    5.001914    5.001906    5.001898
    5.001890    5.001883    5.001876    5.001870    5.001864    5.001859
    5.001855    5.001852    4.998000    4.998367    4.999304    5.000838
    5.002595    5.004260    5.005800    5.007191    5.008204    5.008890
    5.009084    5.008900    5.008526    5.007866    5.007076    5.006185
    5.005209    5.004224    5.003236    5.002264    5.001356    5.000493
    4.999606    4.998745    4.997932    4.997200    5.256892    5.257083
    5.257608    5.258448    5.259472    5.260528    5.261593    5.262638
    5.263368    5.263802    5.263763    5.263367    5.262813    5.262021
    5.261161    5.260275    5.259393    5.258588    5.257859    5.257211
    5.256660    5.256180    5.255722    5.255305    5.254930    5.254606
    5.507213    5.507234    5.507360    5.507529    5.507843    5.508312
    5.508916    5.509629    5.510084    5.510274    5.510011    5.509409
    5.508680    5.507763    5.506834    5.505952    5.505163    5.504530
    5.504051    5.503718    5.503512    5.503402    5.503358    5.503370
    5.503419    5.503489    5.757832    5.757683    5.757410    5.756907
    5.756511    5.756391    5.756535    5.756913    5.757095    5.757040
    5.756552    5.755745    5.754840    5.753796    5.752799    5.751922
    5.751225    5.750765    5.750537    5.750517    5.750658    5.750918
    5.751290    5.751731    5.752204    5.752669    6.017620    6.017294
    6.016607    6.015408    6.014275    6.013545    6.013212    6.013244
    6.013141    6.012833    6.012112    6.011092    6.010006    6.008831
    6.007763    6.006890    6.006288    6.006007    6.006040    6.006346
    6.006846    6.007489    6.008290    6.009177    6.010091    6.010964
    6.293924    6.293411    6.292285    6.290345    6.288428    6.287049
    6.286209    6.285873    6.285467    6.284890    6.283921    6.282674
    6.281395    6.280080    6.278937    6.278069    6.277569    6.277479
    6.277787    6.278440    6.279322    6.280373    6.281632    6.282992
    6.284374    6.285682    6.571744    6.571041    6.569473    6.566788
    6.564084    6.562052    6.560702    6.559995    6.559285    6.558437
    6.557219    6.555744    6.554271    6.552816    6.551597    6.550735
    6.550336    6.550438    6.551025    6.552025    6.553291    6.554752
    6.556471    6.558308    6.560160    6.561905    6.850855    6.849964
    6.847975    6.844610    6.841213    6.838676    6.837011    6.836158
    6.835402    6.834560    6.833385    6.831979    6.830603    6.829295
    6.828276    6.827683    6.827641    6.828176    6.829270    6.830834
    6.832681    6.834732    6.837077    6.839539    6.841993    6.844287
    7.131082    7.130002    7.127592    7.123554    7.119478    7.116463
    7.114527    7.113577    7.112839    7.112073    7.111017    7.109763
    7.108569    7.107489    7.106748    7.106494    7.106863    7.107872
    7.109498    7.111634    7.114060    7.116688    7.119633    7.122687
    7.125707    7.128511    7.412226    7.410956    7.408124    7.403411
    7.398655    7.395160    7.392951    7.391905    7.391183    7.390494
    7.389558    7.388456    7.387445    7.386594    7.386131    7.386216
    7.386998    7.388483    7.390642    7.393354    7.396360    7.399567
    7.403114    7.406763    7.410348    7.413665    7.694084    7.692625
    7.689370    7.683980    7.678541    7.674566    7.672083    7.670940
    7.670235    7.669623    7.668807    7.667858    7.667029    7.666409
    7.666225    7.666650    7.667846    7.669808    7.672502    7.675790
    7.679378    7.683165    7.687316    7.691560    7.695714    7.699544
    7.976455    7.974805    7.971126    7.965057    7.958935    7.954478
    7.951721    7.950482    7.949793    7.949258    7.948563    7.947767
    7.947121    7.946731    7.946827    7.947593    7.949203    7.951643
    7.954873    7.958738    7.962910    7.967277    7.972034    7.976875
    7.981597    7.985941    8.259138    8.257297    8.253194    8.246445
    8.239638    8.234698    8.231667    8.230330    8.229658    8.229200
    8.228626    8.227983    8.227521    8.227361    8.227737    8.228845
    8.230871    8.233790    8.237557    8.242001    8.246757    8.251707
    8.257071    8.262510    8.267803    8.272662    8.541946    8.539914
    8.535386    8.527958    8.520466    8.515044    8.511739    8.510306
    8.509652    8.509271    8.508820    8.508332    8.508055    8.508127
    8.508785    8.510235    8.512678    8.516076    8.520382    8.525404
    8.530745    8.536277    8.542247    8.548284    8.554147    8.559522
    8.824651    8.822428    8.817476    8.809368    8.801192    8.795288
    8.791709    8.790180    8.789544    8.789242    8.788913    8.788580
    8.788487    8.788792    8.789732    8.791524    8.794383    8.798261
    8.803104    8.808705    8.814630    8.820744    8.827320    8.833955
    8.840387    8.846277    9.107049    9.104636    9.099259    9.090473
    9.081613    9.075227    9.071376    9.069750    9.069132    9.068908
    9.068701    9.068523    9.068615    9.069152    9.070373    9.072507
    9.075782    9.080139    9.085519    9.091698    9.098206    9.104902
    9.112083    9.119315    9.126316    9.132721    9.388935    9.386332
    9.380532    9.371068    9.361526    9.354660    9.350536    9.348814
    9.348214    9.348068    9.347983    9.347959    9.348235    9.349004
    9.350505    9.352982    9.356671    9.361506    9.367422    9.374178
    9.381269    9.388545    9.396331    9.404159    9.411728    9.418646
    9.670107    9.667314    9.661092    9.650952    9.640730    9.633384
    9.628987    9.627170    9.626588    9.626519    9.626556    9.626686
    9.627147    9.628146    9.629928    9.632745    9.636848    9.642160
    9.648610    9.655942    9.663614    9.671469    9.679858    9.688280
    9.696415    9.703846    9.950307    9.947326    9.940686    9.929877
    9.918980    9.911160    9.906494    9.904582    9.904018    9.904027
    9.904185    9.904468    9.905112    9.906341    9.908400    9.911556
    9.916071    9.921856    9.928837    9.936739    9.944989    9.953418
    9.962405    9.971417    9.980115    9.988055   10.229345   10.226176
   10.219117   10.207638   10.196065   10.187768   10.182832   10.180824
   10.180277   10.180363   10.180642   10.181077   10.181903   10.183362
   10.185700   10.189194   10.194120   10.200380   10.207892   10.216367
   10.225195   10.234200   10.243786   10.253390   10.262651   10.271100
   10.507067   10.503710   10.496234   10.484087   10.471841   10.463071
   10.457866   10.455763   10.455233   10.455395   10.455794   10.456381
   10.457389   10.459076   10.461690   10.465522   10.470858   10.477589
   10.485631   10.494676   10.504078   10.513657   10.523840   10.534032
   10.543854   10.552810   10.783275   10.779732   10.771841   10.759030
   10.746115   10.736874   10.731400   10.729203   10.728691   10.728929
   10.729446   10.730185   10.731373   10.733287   10.736177   10.740343
   10.746087   10.753288   10.761856   10.771467   10.781442   10.791591
   10.802367   10.813144   10.823524   10.832984   11.057774   11.054046
   11.045743   11.032272   11.018693   11.008983   11.003244   11.000953
   11.000457   11.000770   11.001406   11.002295   11.003663   11.005802
   11.008966   11.013465   11.019614   11.027281   11.036372   11.046547
   11.057090   11.067805   11.079172   11.090530   11.101465   11.111426
   11.330374   11.326461   11.317749   11.303623   11.289384   11.279209
   11.273205   11.270821   11.270342   11.270730   11.271484   11.272522
   11.274067   11.276431   11.279867   11.284697   11.291248   11.299378
   11.308988   11.319722   11.330831   11.342108   11.354060   11.365997
   11.377481   11.387940   11.600959   11.596863   11.587741   11.572959
   11.558059   11.547418   11.541148   11.538670   11.538206   11.538668
   11.539538   11.540723   11.542444   11.545029   11.548734   11.553893
   11.560843   11.569434   11.579560   11.590850   11.602520   11.614356
   11.626891   11.639401   11.651433   11.662386   11.869293   11.865016
   11.855491   11.840064   11.824514   11.813415   11.806885   11.804313
   11.803865   11.804398   11.805381   11.806710   11.808605   11.811407
   11.815377   11.820858   11.828201   11.837245   11.847879   11.859716
   11.871939   11.884328   11.897436   11.910513   11.923085   11.934526
   12.135170   12.130713   12.120790   12.104724   12.088530   12.076976
   12.070187   12.067524   12.067090   12.067695   12.068791   12.070262
   12.072328   12.075346   12.079578   12.085379   12.093111   12.102603
   12.113741   12.126121   12.138892   12.151826   12.165504   12.179142
   12.192249   12.204174   12.398411   12.393777   12.383458   12.366760
   12.349928   12.337925   12.330880   12.328126   12.327706   12.328382
   12.329589   12.331202   12.333437   12.336668   12.341160   12.347277
   12.355394   12.365331   12.376968   12.389884   12.403198   12.416674
   12.430914   12.445108   12.458745   12.471149   12.658843   12.654033
   12.643324   12.625999   12.608537   12.596089   12.588791   12.585946
   12.585541   12.586286   12.587604   12.589357   12.591759   12.595202
   12.599950   12.606380   12.614879   12.625255   12.637385   12.650833
   12.664684   12.678694   12.693492   12.708236   12.722397   12.735275
   12.916296   12.911313   12.900217   12.882274   12.864187   12.851300
   12.843752   12.840817   12.840427   12.841241   12.842667   12.844558
   12.847127   12.850778   12.855780   12.862520   12.871395   12.882206
   12.894824   12.908797   12.923179   12.937718   12.953067   12.968354
   12.983033   12.996079   13.119349   13.113306   13.098700   13.073604
   13.043543   13.013293   12.983273   12.955120   12.933971   12.924751
   12.923547   12.924100   12.928159   12.942530   12.959491   12.978332
   12.998534   13.018458   13.038023   13.056900   13.074309   13.090642
   13.107201   13.123117   13.138017   13.151314   13.296927   13.290532
   13.274968   13.248152   13.216054   13.183662   13.151417   13.121071
   13.097801   13.081388   13.075640   13.078101   13.084810   13.097730
   13.113340   13.130943   13.150038   13.168958   13.187635   13.205741
   13.222464   13.238217   13.254368   13.270011   13.284757   13.297993
   13.406603   13.400801   13.385944   13.361700   13.334316   13.308653
   13.284984   13.263688   13.248211   13.237721   13.233395   13.234183
   13.239303   13.250793   13.265069   13.279313   13.294359   13.309539
   13.324789   13.339802   13.353845   13.367181   13.380908   13.394251
   13.406867   13.418212   13.410728   13.404541   13.388542   13.362509
   13.333973   13.307864   13.283859   13.262469   13.247178   13.236892
   13.234372   13.237498   13.243618   13.254196   13.266734   13.280913
   13.296409   13.312018   13.327688   13.343098   13.357495   13.371165
   13.385236   13.398903   13.411827   13.423452   13.414790   13.408224
   13.391101   13.363304   13.333635   13.307087   13.282751   13.261269
   13.246161   13.236076   13.233976   13.237404   13.243911   13.254919
   13.267856   13.282489   13.298427   13.314460   13.330543   13.346344
   13.361088   13.375088   13.389497   13.403484   13.416711   13.428612
   13.418787   13.411846   13.393617   13.364244   13.333932   13.307393
   13.283016   13.261517   13.246389   13.236146   13.233959   13.237312
   13.244199   13.255630   13.268959   13.284038   13.300413   13.316862
   13.333351   13.349537   13.364623   13.378948   13.393690   13.407991
   13.421516   13.433688   13.422984   13.416482   13.399374   13.372111
   13.344665   13.321090   13.299269   13.280208   13.266869   13.257885
   13.256154   13.259135   13.265016   13.274987   13.286702   13.300089
   13.314720   13.329511   13.344447   13.359216   13.373078   13.386346
   13.400108   13.413551   13.426356   13.437953   13.427122   13.421083
   13.405075   13.379837   13.355206   13.334542   13.315232   13.298566
   13.286984   13.279235   13.277952   13.280737   13.286150   13.295168
   13.305714   13.317766   13.330912   13.344198   13.357612   13.370876
   13.383320   13.395238   13.407602   13.419679   13.431186   13.441613
   13.431182   13.425598   13.410670   13.387419   13.365550   13.347743
   13.330897   13.316581   13.306723   13.300187   13.299344   13.301935
   13.306888   13.314973   13.324371   13.335112   13.346803   13.358610
   13.370532   13.382317   13.393370   13.403964   13.414957   13.425691
   13.435926   13.445206   13.435086   13.429951   13.416119   13.394885
   13.375594   13.360336   13.345684   13.333438   13.325099   13.319655
   13.319213   13.321666   13.326234   13.333506   13.341895   13.351470
   13.361854   13.372325   13.382885   13.393309   13.403069   13.412419
   13.422110   13.431560   13.440566   13.448727   13.438726   13.434048
   13.421384   13.402256   13.385270   13.372110   13.359259   13.348633
   13.341420   13.336761   13.336505   13.338752   13.342892   13.349399
   13.356882   13.365417   13.374660   13.383977   13.393371   13.402641
   13.411320   13.419636   13.428253   13.436652   13.444656   13.451911
   13.442288   13.438058   13.426537   13.409470   13.394739   13.383633
   13.372544   13.363504   13.357394   13.353502   13.353430   13.355474
   13.359196   13.364954   13.371550   13.379068   13.387193   13.395380
   13.403633   13.411775   13.419396   13.426700   13.434265   13.441636
   13.448660   13.455027   13.445771   13.441979   13.431575   13.416525
   13.403999   13.394901   13.385535   13.378046   13.373014   13.369872
   13.369978   13.371826   13.375138   13.380164   13.385893   13.392416
   13.399449   13.406531   13.413668   13.420707   13.427292   13.433607
   13.440144   13.446509   13.452575   13.458073   13.449257   13.445900
   13.436639   13.423531   13.412969   13.405553   13.397690   13.391526
   13.387425   13.384937   13.385198   13.386888   13.389847   13.394237
   13.399209   13.404855   13.410920   13.417018   13.423153   13.429193
   13.434835   13.440239   13.445822   13.451246   13.456408   13.461081
   13.452812   13.449892   13.441825   13.430553   13.421609   13.415422
   13.408761   13.403589   13.400165   13.398129   13.398437   13.399956
   13.402566   13.406394   13.410718   13.415618   13.420873   13.426155
   13.431465   13.436690   13.441570   13.446244   13.451066   13.455747
   13.460198   13.464226   13.456278   13.453784   13.446882   13.437399
   13.430033   13.425045   13.419556   13.415350   13.412588   13.410992
   13.411346   13.412697   13.414967   13.418248   13.421939   13.426112
   13.430578   13.435063   13.439569   13.444000   13.448138   13.452100
   13.456180   13.460136   13.463894   13.467292   13.459654   13.457575
   13.451807   13.444069   13.438240   13.434419   13.430072   13.426807
   13.424689   13.423522   13.423921   13.425108   13.427048   13.429795
   13.432870   13.436335   13.440031   13.443740   13.447463   13.451121
   13.454536   13.457804   13.461161   13.464411   13.467494   13.470278
   13.462940   13.461265   13.456600   13.450559   13.446223   13.443534
   13.440296   13.437952   13.436465   13.435715   13.436157   13.437186
   13.438803   13.441031   13.443508   13.446283   13.449231   13.452185
   13.455145   13.458050   13.460761   13.463354   13.466009   13.468571
   13.470997   13.473184   13.465928   13.464611   13.460959   13.456235
   13.452860   13.450794   13.448305   13.446530   13.445443   13.444949
   13.445401   13.446320   13.447706   13.449573   13.451636   13.453931
   13.456360   13.458788   13.461215   13.463590   13.465804   13.467915
   13.470064   13.472129   13.474076   13.475825   13.468827   13.467858
   13.465189   13.461745   13.459305   13.457845   13.456084   13.454861
   13.454156   13.453897   13.454344   13.455141   13.456286   13.457790
   13.459440   13.461261   13.463178   13.465091   13.466998   13.468860
   13.470597   13.472249   13.473919   13.475517   13.477017   13.478359
   13.471638   13.471008   13.469293   13.467090   13.465558   13.464684
   13.463630   13.462943   13.462608   13.462577   13.463019   13.463698
   13.464611   13.465762   13.467011   13.468371   13.469792   13.471205
   13.472608   13.473974   13.475247   13.476453   13.477659   13.478804
   13.479870   13.480818   13.474363   13.474060   13.473270   13.472269
   13.471617   13.471313   13.470943   13.470775   13.470799   13.470989
   13.471426   13.471990   13.472677   13.473488   13.474347   13.475261
   13.476201   13.477130   13.478045   13.478929   13.479752   13.480527
   13.481283   13.481989   13.482635   13.483201   13.477000   13.477014
   13.477119   13.477283   13.477482   13.477729   13.478022   13.478356
   13.478728   13.479132   13.479563   13.480017   13.480486   13.480966
   13.481449   13.481931   13.482405   13.482866   13.483307   13.483725
   13.484114   13.484471   13.484791   13.485072   13.485311   13.485507
   -0.333000   -0.312062   -0.251177   -0.153625   -0.023067    0.136619
    0.321480    0.527616    0.751286    0.988996    1.237576    1.494239
    1.525000   -0.333000   -0.312062   -0.251177   -0.153625   -0.023067
    0.136619    0.321480    0.527616    0.751286    0.988996    1.237576
    1.494239    1.525000   -0.333000   -0.312062   -0.251177   -0.153625
   -0.023067    0.136619    0.321480    0.527616    0.751286    0.988996
    1.237576    1.494239    1.525000   -0.333000   -0.312062   -0.251177
   -0.153625   -0.023067    0.136619    0.321480    0.527616    0.751286
    0.988996    1.237576    1.494239    1.525000   -0.333000   -0.312062
   -0.251177   -0.153625   -0.023067    0.136619    0.321480    0.527616
    0.751286    0.988996    1.237576    1.494239    1.525000   -0.333000
   -0.312062   -0.251177   -0.153625   -0.023067    0.136619    0.321480
    0.527616    0.751286    0.988996    1.237576    1.494239    1.525000
   -0.333000   -0.312062   -0.251177   -0.153625   -0.023067    0.136619
    0.321480    0.527616    0.751286    0.988996    1.237576    1.494239
    1.525000   -0.333000   -0.312062   -0.251177   -0.153625   -0.023067
    0.136619    0.321480    0.527616    0.751286    0.988996    1.237576
    1.494239    1.525000   -0.333000   -0.312062   -0.251177   -0.153625
   -0.023067    0.136619    0.321480    0.527616    0.751286    0.988996
    1.237576    1.494239    1.525000   -0.333000   -0.312062   -0.251177
   -0.153625   -0.023067    0.136619    0.321480    0.527616    0.751286
    0.988996    1.237576    1.494239    1.525000   -0.333000   -0.312062
   -0.251177   -0.153625   -0.023067    0.136619    0.321480    0.527616
    0.751286    0.988996    1.237576    1.494239    1.525000   -0.333000
   -0.312062   -0.251177   -0.153625   -0.023067    0.136619    0.321480
    0.527616    0.751286    0.988996    1.237576    1.494239    1.525000
   -0.333000   -0.312062   -0.251177   -0.153625   -0.023067    0.136619
    0.321480    0.527616    0.751286    0.988996    1.237576    1.494239
    1.525000   -0.333000   -0.312062   -0.251177   -0.153625   -0.023067
    0.136619    0.321480    0.527616    0.751286    0.988996    1.237576
    1.494239    1.525000   -0.333000   -0.312062   -0.251177   -0.153625
   -0.023067    0.136619    0.321480    0.527616    0.751286    0.988996
    1.237576    1.494239    1.525000   -0.333000   -0.312062   -0.251177
   -0.153625   -0.023067    0.136619    0.321480    0.527616    0.751286
    0.988996    1.237576    1.494239    1.525000   -0.333000   -0.312062
   -0.251177   -0.153625   -0.023067    0.136619    0.321480    0.527616
    0.751286    0.988996    1.237576    1.494239    1.525000   -0.333000
   -0.312062   -0.251177   -0.153625   -0.023067    0.136619    0.321480
    0.527616    0.751286    0.988996    1.237576    1.494239    1.525000
   -0.333000   -0.312062   -0.251177   -0.153625   -0.023067    0.136619
    0.321480    0.527616    0.751286    0.988996    1.237576    1.494239
    1.525000   -0.333000   -0.312062   -0.251177   -0.153625   -0.023067
    0.136619    0.321480    0.527616    0.751286    0.988996    1.237576
    1.494239    1.525000   -0.333000   -0.312062   -0.251177   -0.153625
   -0.023067    0.136619    0.321480    0.527616    0.751286    0.988996
    1.237576    1.494239    1.525000   -0.333000   -0.312062   -0.251177
   -0.153625   -0.023067    0.136619    0.321480    0.527616    0.751286
    0.988996    1.237576    1.494239    1.525000   -0.333000   -0.312062
   -0.251177   -0.153625   -0.023067    0.136619    0.321480    0.527616
    0.751286    0.988996    1.237576    1.494239    1.525000   -0.333000
   -0.312062   -0.251177   -0.153625   -0.023067    0.136619    0.321480
    0.527616    0.751286    0.988996    1.237576    1.494239    1.525000
   -0.333000   -0.312062   -0.251177   -0.153625   -0.023067    0.136619
    0.321480    0.527616    0.751286    0.988996    1.237576    1.494239
    1.525000   -0.333000   -0.312062   -0.251177   -0.153625   -0.023067
    0.136619    0.321480    0.527616    0.751286    0.988996    1.237576
    1.494239    1.525000   -0.333000   -0.312062   -0.251177   -0.153625
   -0.023067    0.136619    0.321480    0.527616    0.751286    0.988996
    1.237576    1.494239    1.525000   -0.333000   -0.312062   -0.251177
   -0.153625   -0.023067    0.136619    0.321480    0.527616    0.751286
    0.988996    1.237576    1.494239    1.525000   -0.333000   -0.312062
   -0.251177   -0.153625   -0.023067    0.136619    0.321480    0.527616
    0.751286    0.988996    1.237576    1.494239    1.525000   -0.333000
   -0.312062   -0.251177   -0.153625   -0.023067    0.136619    0.321480
    0.527616    0.751286    0.988996    1.237576    1.494239    1.525000
   -0.333000   -0.312062   -0.251177   -0.153625   -0.023067    0.136619
    0.321480    0.527616    0.751286    0.988996    1.237576    1.494239
    1.525000   -0.333000   -0.312062   -0.251177   -0.153625   -0.023067
    0.136619    0.321480    0.527616    0.751286    0.988996    1.237576
    1.494239    1.525000   -0.333000   -0.312062   -0.251177   -0.153625
   -0.023067    0.136619    0.321480    0.527616    0.751286    0.988996
    1.237576    1.494239    1.525000   -0.333000   -0.312062   -0.251177
   -0.153625   -0.023067    0.136619    0.321480    0.527616    0.751286
    0.988996    1.237576    1.494239    1.525000   -0.333000   -0.312062
   -0.251177   -0.153625   -0.023067    0.136619    0.321480    0.527616
    0.751286    0.988996    1.237576    1.494239    1.525000   -0.333000
   -0.312062   -0.251177   -0.153625   -0.023067    0.136619    0.321480
    0.527616    0.751286    0.988996    1.237576    1.494239    1.525000
   -0.333000   -0.312062   -0.251177   -0.153625   -0.023067    0.136619
    0.321480    0.527616    0.751286    0.988996    1.237576    1.494239
    1.525000   -0.333000   -0.312062   -0.251177   -0.153625   -0.023067
    0.136619    0.321480    0.527616    0.751286    0.988996    1.237576
    1.494239    1.525000    0.000000   -0.005329   -0.034188   -0.076756
   -0.128120   -0.184578   -0.243117   -0.301246   -0.356921   -0.408502
   -0.454717   -0.494621   -0.498483    0.000000   -0.005281   -0.034065
   -0.076543   -0.127810   -0.184167   -0.242605   -0.300635   -0.356215
   -0.407708   -0.453842   -0.493673   -0.497528    0.000000   -0.005233
   -0.033941   -0.076330   -0.127499   -0.183756   -0.242092   -0.300024
   -0.355510   -0.406914   -0.452967   -0.492725   -0.496572    0.000000
   -0.005185   -0.033818   -0.076117   -0.127189   -0.183345   -0.241580
   -0.299412   -0.354804   -0.406121   -0.452092   -0.491777   -0.495617
    0.000000   -0.005106   -0.033694   -0.075905   -0.126879   -0.182934
   -0.241068   -0.298801   -0.354099   -0.405327   -0.451217   -0.490829
   -0.494661    0.000000   -0.004758   -0.032954   -0.074879   -0.125653
   -0.181590   -0.239680   -0.297432   -0.352799   -0.404136   -0.450162
   -0.489881   -0.493706    0.000000   -0.004213   -0.031988   -0.073322
   -0.123383   -0.178579   -0.235929   -0.292959   -0.347634   -0.398324
   -0.443756   -0.482984   -0.486784    0.000000   -0.003386   -0.030055
   -0.070312   -0.119480   -0.173925   -0.230672   -0.287235   -0.341567
   -0.392025   -0.437314   -0.476004   -0.479749    0.000000   -0.002253
   -0.027335   -0.066132   -0.114018   -0.167341   -0.222447   -0.277405
   -0.330200   -0.379223   -0.423192   -0.461138   -0.464819    0.000000
   -0.000833   -0.023854   -0.060518   -0.106089   -0.156768   -0.209869
   -0.263042   -0.314275   -0.361970   -0.404824   -0.441853   -0.445452
    0.000000    0.000727   -0.019777   -0.053452   -0.095766   -0.143484
   -0.193815   -0.244474   -0.293474   -0.339236   -0.380444   -0.416091
   -0.419534    0.000000    0.002361   -0.015259   -0.045333   -0.083915
   -0.127874   -0.174562   -0.221814   -0.267692   -0.310119   -0.348118
   -0.380850   -0.384023    0.000000    0.004049   -0.010463   -0.036719
   -0.071082   -0.110658   -0.152810   -0.195355   -0.236654   -0.275145
   -0.309681   -0.339348   -0.342213    0.000000    0.005768   -0.005583
   -0.027817   -0.057501   -0.092006   -0.129008   -0.166596   -0.203143
   -0.237185   -0.267640   -0.293643   -0.296136    0.000000    0.007498
   -0.000593   -0.018613   -0.043506   -0.072867   -0.104580   -0.136900
   -0.168339   -0.197542   -0.223511   -0.245328   -0.247380    0.000000
    0.009239    0.004414   -0.009394   -0.029392   -0.053425   -0.079587
   -0.106301   -0.132227   -0.156140   -0.177139   -0.194454   -0.196046
    0.000000    0.010985    0.009461   -0.000053   -0.015095   -0.033748
   -0.054316   -0.075398   -0.095798   -0.114426   -0.130472   -0.143247
   -0.144369    0.000000    0.012730    0.014508    0.009288   -0.000773
   -0.013997   -0.028899   -0.044251   -0.059010   -0.072217   -0.083165
   -0.091248   -0.091881    0.000000    0.014479    0.019565    0.018646
    0.013570    0.005774   -0.003467   -0.013101   -0.022220   -0.030006
   -0.035854   -0.039245   -0.039390    0.000000    0.016229    0.024626
    0.028017    0.027941    0.025599    0.022051    0.018176    0.014728
    0.012390    0.011667    0.012991    0.013339    0.000000    0.017978
    0.029687    0.037388    0.042313    0.045424    0.047570    0.049454
    0.051680    0.054795    0.059202    0.065248    0.066087    0.000000
    0.019728    0.034748    0.046758    0.056685    0.065249    0.073089
    0.080732    0.088632    0.097199    0.106737    0.117505    0.118836
    0.000000    0.021477    0.039808    0.056129    0.071057    0.085075
    0.098608    0.112010    0.125584    0.139604    0.154272    0.169762
    0.171584    0.000000    0.023226    0.044869    0.065499    0.085429
    0.104900    0.124127    0.143288    0.162536    0.182008    0.201806
    0.222019    0.224333    0.000000    0.024976    0.049930    0.074870
    0.099801    0.124725    0.149646    0.174567    0.199488    0.224412
    0.249341    0.274276    0.277081    0.000000    0.026725    0.054991
    0.084241    0.114173    0.144550    0.175165    0.205845    0.236440
    0.266817    0.296876    0.326532    0.329829    0.000000    0.028475
    0.060051    0.093611    0.128545    0.164376    0.200684    0.237123
    0.273392    0.309221    0.344411    0.378789    0.382578    0.000000
    0.030224    0.065112    0.102982    0.142916    0.184201    0.226203
    0.268401    0.310344    0.351625    0.391945    0.431046    0.435326
    0.000000    0.031973    0.070173    0.112353    0.157288    0.204026
    0.251722    0.299679    0.347296    0.394030    0.439480    0.483303
    0.488075    0.000000    0.033723    0.075234    0.121723    0.171660
    0.223852    0.277241    0.330957    0.384248    0.436434    0.487015
    0.535560    0.540823    0.000000    0.035472    0.080294    0.131094
    0.186032    0.243677    0.302760    0.362235    0.421197    0.478833
    0.534539    0.587800    0.593554    0.000000    0.037221    0.085352
    0.140452    0.200375    0.263448    0.328193    0.393387    0.457989
    0.521045    0.581851    0.639805    0.646051    0.000000    0.038967
    0.090399    0.149794    0.214698    0.283200    0.353611    0.424534
    0.494779    0.563256    0.629162    0.691808    0.698543    0.000000
    0.040712    0.095446    0.159134    0.228993    0.302877    0.378882
    0.455440    0.531212    0.604978    0.675839    0.743028    0.750244
    0.000000    0.042454    0.100454    0.168357    0.243113    0.322326
    0.403884    0.486048    0.567334    0.646392    0.722224    0.793918
    0.801596    0.000000    0.044183    0.105442    0.177557    0.257107
    0.341467    0.428320    0.515759    0.602164    0.686069    0.766399
    0.842284    0.850432    0.000000    0.045903    0.110325    0.186467
    0.270698    0.360129    0.452136    0.544544    0.635714    0.724083
    0.808507    0.888074    0.896614    0.000000    0.047591    0.115122
    0.195088    0.283550    0.377384    0.473943    0.571061    0.666821
    0.759151    0.847066    0.929720    0.938594    0.000000    0.000000
    0.000000    0.000000    0.000000    0.000000    0.000000    0.000000
    0.000000    0.000000    0.000000    0.000000    0.000000    0.000000
    0.001749    0.005060    0.009369    0.014369    0.019822    0.025516
    0.031275    0.036948    0.042401    0.047531    0.052253    0.052745
    0.000000    0.003498    0.010119    0.018738    0.028739    0.039645
    0.051031    0.062549    0.073896    0.084801    0.095062    0.104506
    0.105489    0.000000    0.005246    0.015179    0.028106    0.043108
    0.059467    0.076547    0.093824    0.110845    0.127202    0.142593
    0.156759    0.158234    0.000000    0.006994    0.020238    0.037475
    0.057478    0.079290    0.102063    0.125099    0.147793    0.169602
    0.190124    0.209012    0.210978    0.000000    0.008708    0.025244
    0.046790    0.071798    0.099070    0.127546    0.156349    0.184725
    0.211994    0.237651    0.261265    0.263723    0.000000    0.010371
    0.030212    0.056030    0.085990    0.118666    0.152788    0.187306
    0.221314    0.253998    0.284752    0.313065    0.316018    0.000000
    0.011912    0.034889    0.064904    0.099822    0.137938    0.177761
    0.218058    0.257768    0.295935    0.331853    0.364858    0.368300
    0.000000    0.013245    0.039155    0.073289    0.113114    0.156637
    0.201916    0.247748    0.292923    0.336355    0.377233    0.414948
    0.418889    0.000000    0.014267    0.042828    0.080792    0.125100
    0.173404    0.224116    0.275530    0.326266    0.375089    0.421075
    0.463517    0.467957    0.000000    0.015057    0.045825    0.086946
    0.135097    0.188118    0.243950    0.300698    0.356804    0.410882
    0.461879    0.508980    0.513900    0.000000    0.015682    0.048104
    0.091623    0.143223    0.200332    0.260693    0.322252    0.383269
    0.441699    0.496715    0.547545    0.552896    0.000000    0.016142
    0.049718    0.095308    0.149691    0.210160    0.274032    0.338929
    0.403312    0.465666    0.524668    0.579284    0.585053    0.000000
    0.016464    0.051058    0.098234    0.154392    0.216881    0.283237
    0.351227    0.418882    0.484562    0.546850    0.604616    0.610734
    0.000000    0.016725    0.051905    0.099998    0.157665    0.222056
    0.290623    0.361055    0.431303    0.499622    0.564525    0.624537
    0.630874    0.000000    0.016895    0.052640    0.101679    0.160374
    0.225939    0.295780    0.367543    0.439142    0.508794    0.574980
    0.636481    0.643017    0.000000    0.017010    0.053015    0.102427
    0.161851    0.228368    0.299342    0.372382    0.445357    0.516430
    0.584041    0.646928    0.653618    0.000000    0.017125    0.053389
    0.103171    0.163053    0.230094    0.301635    0.375270    0.448852
    0.520523    0.588711    0.652139    0.658893    0.000000    0.017156
    0.053580    0.103663    0.163978    0.231571    0.303764    0.378126
    0.452341    0.524607    0.593367    0.657332    0.664143    0.000000
    0.017172    0.053631    0.103765    0.164143    0.231810    0.304081
    0.378526    0.452972    0.525529    0.594599    0.658879    0.665731
    0.000000    0.017187    0.053682    0.103865    0.164305    0.232042
    0.304391    0.378916    0.453444    0.526083    0.595232    0.659587
    0.666448    0.000000    0.017203    0.053732    0.103966    0.164468
    0.232275    0.304701    0.379306    0.453916    0.526635    0.595862
    0.660289    0.667158    0.000000    0.017219    0.053783    0.104067
    0.164630    0.232508    0.305010    0.379696    0.454387    0.527187
    0.596491    0.660991    0.667868    0.000000    0.017234    0.053834
    0.104167    0.164792    0.232741    0.305320    0.380087    0.454859
    0.527739    0.597121    0.661693    0.668578    0.000000    0.017250
    0.053884    0.104268    0.164955    0.232974    0.305630    0.380477
    0.455330    0.528291    0.597750    0.662395    0.669288    0.000000
    0.017235    0.053835    0.104170    0.164797    0.232747    0.305329
    0.380097    0.454872    0.527755    0.597138    0.661713    0.668601
    0.000000    0.017219    0.053784    0.104069    0.164635    0.232515
    0.305019    0.379707    0.454400    0.527203    0.596509    0.661010
    0.667891    0.000000    0.017203    0.053734    0.103969    0.164472
    0.232282    0.304709    0.379317    0.453929    0.526650    0.595879
    0.660308    0.667181    0.000000    0.017188    0.053683    0.103868
    0.164310    0.232049    0.304399    0.378927    0.453457    0.526098
    0.595250    0.659606    0.666471    0.000000    0.017172    0.053633
    0.103768    0.164148    0.231816    0.304090    0.378537    0.452986
    0.525546    0.594620    0.658904    0.665761    0.000000    0.017157
    0.053582    0.103667    0.163985    0.231583    0.303780    0.378147
    0.452373    0.524650    0.593421    0.657397    0.664222    0.000000
    0.017126    0.053395    0.103186    0.163080    0.230135    0.301695
